# .PCD v0.7 - Point Cloud Data file format
VERSION 0.7
FIELDS x y z
SIZE 4 4 4
TYPE F F F
COUNT 1 1 1
WIDTH 509
HEIGHT 1
VIEWPOINT 0 0 0 1 0 0 0
POINTS 509
DATA ascii
0.12775843 -0.05720228 0.98400003
0.092245005 -0.052263301 0.98400009
0.097680397 -0.051983394 0.98280001
0.10187729 -0.051347516 0.98325002
0.10761917 -0.050916314 0.98400003
0.1123393 -0.051859207 0.98400003
0.11732917 -0.052263301 0.98400009
0.12209425 -0.053430695 0.98400003
0.12649973 -0.054687887 0.98400003
0.092514724 -0.049030524 0.98400003
0.097549535 -0.048401922 0.98400003
0.10222472 -0.047683533 0.98400009
0.10761917 -0.047144733 0.98400009
0.11233931 -0.047144737 0.98400003
0.11705944 -0.04714473 0.98400009
0.12083556 -0.048087627 0.98400003
0.1085632 -0.043373153 0.98400003
0.1123393 -0.042430259 0.98400003
0.11611542 -0.043373153 0.98400003
0.13256779 -0.057690967 0.98699999
0.079701275 -0.051175032 0.98900002
0.082547754 -0.0530704 0.98900002
0.087113425 -0.052963085 0.98699993
0.12423432 -0.051649675 0.986
0.12804739 -0.052593596 0.98719996
0.13229327 -0.053341169 0.98899996
0.082864024 -0.048647869 0.98900002
0.087202333 -0.047335103 0.98800004
0.092748798 -0.04631874 0.98650002
0.097117178 -0.045980807 0.986
0.10121628 -0.045350932 0.986
0.12351359 -0.04697061 0.986
0.12809134 -0.047384292 0.98900002
0.1309378 -0.048331976 0.98900002
0.087766282 -0.043119702 0.98900002
0.092936844 -0.042623818 0.98849994
0.097505882 -0.04254812 0.98675001
0.10216223 -0.0425165 0.986
0.10736493 -0.042044092 0.986
0.11777034 -0.042044096 0.986
0.12212064 -0.042548124 0.98675001
0.12676297 -0.042835396 0.98900002
0.093617357 -0.038539223 0.98900002
0.097728938 -0.037907433 0.98900002
0.10243789 -0.037894014 0.98866665
0.10776331 -0.038085423 0.98749995
0.11220992 -0.037538104 0.98642856
0.11741633 -0.037828855 0.98699993
0.1223984 -0.037907433 0.98900002
0.1258774 -0.039171014 0.98900002
0.098045208 -0.033484899 0.98900002
0.10247307 -0.033169001 0.98900002
0.10721719 -0.033169001 0.98900002
0.11196131 -0.032221317 0.98900002
0.11765426 -0.033169005 0.98900002
0.12144956 -0.034116689 0.98900002
0.14085202 -0.060835868 0.99199998
0.073281117 -0.057984188 0.99199998
0.078039624 -0.055132508 0.99199992
0.13752106 -0.057508908 0.99199998
0.14085202 -0.058934748 0.99199998
0.077658944 -0.052470941 0.99199998
0.13577627 -0.052597683 0.99199992
0.078674093 -0.04816173 0.99200004
0.082480915 -0.04626061 0.99199992
0.13276254 -0.047052745 0.99199998
0.1351418 -0.047528025 0.99199992
0.079943039 -0.043725781 0.99199998
0.082798146 -0.042775221 0.99199998
0.086604953 -0.041824661 0.99199998
0.12943158 -0.041824661 0.99199998
0.13196947 -0.043092072 0.99199992
0.083749846 -0.039923538 0.99199998
0.087794587 -0.038260061 0.99200004
0.091997944 -0.036755007 0.99199992
0.12790886 -0.037642196 0.99199998
0.13133499 -0.039923538 0.99199998
0.08946006 -0.034220178 0.99199998
0.092505515 -0.032699279 0.99199998
0.09643922 -0.031685349 0.99200004
0.10278391 -0.030417934 0.99199992
0.10754241 -0.030417934 0.99199998
0.11801115 -0.030417934 0.99199992
0.12296001 -0.031938829 0.99199998
0.12625925 -0.033586472 0.99199992
0.09834262 -0.027883107 0.99199992
0.10278391 -0.027566254 0.99200004
0.10754241 -0.028516814 0.99199998
0.11230093 -0.027566254 0.99200004
0.11705944 -0.028516814 0.99199998
0.068937048 -0.058334902 0.99800003
0.071947262 -0.056598276 0.99550003
0.13936882 -0.056252673 0.995
0.14255492 -0.056379158 0.99725008
0.072655603 -0.052517507 0.99649996
0.13901258 -0.052226529 0.99700004
0.14170395 -0.052597042 0.99800003
0.073870942 -0.048168115 0.9974001
0.077002861 -0.046400513 0.99500006
0.13814561 -0.04822034 0.99650002
0.07797391 -0.042522728 0.99725008
0.080821186 -0.040679902 0.99500006
0.13364133 -0.040997714 0.995
0.13656168 -0.042408414 0.99680007
0.07851164 -0.038252391 0.99800003
0.082174547 -0.037221342 0.99599999
0.085912287 -0.036230538 0.995
0.12982301 -0.036230538 0.995
0.1329875 -0.037267335 0.99724996
0.13595918 -0.038252391 0.99800003
0.083439782 -0.032876361 0.9974001
0.08764828 -0.032201432 0.99574995
0.091639772 -0.030509926 0.995
0.12801026 -0.031963076 0.99574995
0.13117188 -0.033470847 0.99800003
0.088018596 -0.028189581 0.99725008
0.092130974 -0.027491128 0.99619997
0.096094482 -0.027331807 0.99500006
0.10786764 -0.026696185 0.995
0.11741346 -0.026696185 0.995
0.12218636 -0.027649621 0.99499995
0.12689626 -0.02802301 0.99700004
0.092554383 -0.023588976 0.99800009
0.097594954 -0.022934828 0.99733341
0.10224282 -0.022903526 0.99599999
0.10709279 -0.022918858 0.99666667
0.11275376 -0.022903526 0.99599999
0.11767968 -0.023889059 0.99725008
0.12255476 -0.024864055 0.99799997
0.099575743 -0.019126195 0.99800003
0.10244812 -0.019126195 0.99800003
0.1053205 -0.019126195 0.99800003
0.11106525 -0.019126195 0.99800003
0.066968732 -0.056968153 1.002
0.14597125 -0.056591887 1.001
0.067643493 -0.052513033 1.0024999
0.14405058 -0.052755147 1.001
0.14597125 -0.052755147 1.001
0.069282427 -0.048053131 1.0029999
0.071545124 -0.047479633 1.001
0.14242396 -0.047736675 1.001375
0.1462629 -0.048053134 1.003
0.069351502 -0.044254724 1.0039999
0.073333636 -0.04250716 1.0024999
0.076826975 -0.041244932 1.001
0.13828856 -0.040285751 1.001
0.14215676 -0.042522252 1.002875
0.073204368 -0.038482368 1.0039999
0.07653264 -0.037261207 1.0022
0.13778649 -0.037124883 1.002
0.14062944 -0.037520312 1.0039999
0.07695362 -0.032665297 1.0026667
0.081148498 -0.032132681 1.001
0.13323392 -0.031988151 1.0015
0.1374654 -0.033074141 1.0034
0.078020439 -0.027899716 1.0039999
0.082440294 -0.027125709 1.0021249
0.086430348 -0.026857166 1.001
0.12868518 -0.026857166 1.001
0.13226065 -0.027187893 1.0031427
0.083436452 -0.022756277 1.0034999
0.087433852 -0.023030967 1.0015
0.090911925 -0.021741515 1.001
0.11812147 -0.021102058 1.001
0.12292317 -0.022061242 1.001
0.12791674 -0.023053007 1.0024999
0.084762946 -0.018279124 1.0039999
0.087608457 -0.017307483 1.0035
0.092284471 -0.017280653 1.0020001
0.097714305 -0.017025525 1.001
0.10275608 -0.016306138 1.001
0.10783814 -0.017031277 1.001375
0.11255153 -0.016881648 1.001
0.11735686 -0.017292151 1.0026666
0.12232835 -0.017317066 1.0039998
0.12586014 -0.01859981 1.0039999
0.088615812 -0.013468828 1.0039999
0.092468672 -0.013468828 1.0039999
0.097284749 -0.012506769 1.0039999
0.10210083 -0.012506769 1.0039998
0.10788012 -0.012506768 1.0039998
0.11269619 -0.01250677 1.0039999
0.11654906 -0.013468828 1.0039999
0.10402726 -0.009620592 1.0039999
0.062796071 -0.057896029 1.007
0.065694362 -0.051141493 1.007
0.067626543 -0.047281757 1.007
0.068592638 -0.043422025 1.007
0.071490914 -0.040527221 1.007
0.14491402 -0.040527221 1.007
0.072134979 -0.037310779 1.007
0.14298183 -0.037632421 1.007
0.073423102 -0.033772685 1.007
0.13911746 -0.030877884 1.007
0.14104965 -0.034737617 1.007
0.076804429 -0.026535681 1.007
0.13679883 -0.02740412 1.007
0.079219669 -0.022193478 1.007
0.081151858 -0.021228544 1.007
0.13235481 -0.022193478 1.007
0.082600996 -0.017851278 1.007
0.085016228 -0.015438942 1.007
0.12752433 -0.016886342 1.007
0.086948417 -0.012865785 1.007
0.092744969 -0.011579205 1.007
0.11834645 -0.012061672 1.007
0.12269387 -0.013509074 1.007
0.12559216 -0.013509074 1.007
0.094677165 -0.0096493391 1.007
0.09789747 -0.0090060495 1.007
0.10240591 -0.0080411164 1.007
0.10723637 -0.0086844051 1.007
0.11206684 -0.0086844051 1.007
0.11689731 -0.0096493391 1.007
0.062983155 -0.056132898 1.01
0.062593378 -0.052006502 1.0104285
0.062511139 -0.047701269 1.0118001
0.065890066 -0.047422618 1.01
0.064142086 -0.043680742 1.013
0.067313462 -0.042021737 1.012
0.14728369 -0.040647961 1.01
0.068335332 -0.038005937 1.0118001
0.14642407 -0.03777184 1.0107501
0.069487259 -0.033488568 1.013
0.072241627 -0.032444581 1.0107501
0.142803 -0.03255631 1.0112001
0.14642537 -0.03429747 1.013
0.073039353 -0.027550155 1.0123999
0.075579785 -0.025163023 1.01
0.13902409 -0.025833143 1.011
0.14279187 -0.027164757 1.0125
0.073860578 -0.022325713 1.013
0.076604888 -0.022275407 1.0107501
0.13780023 -0.022292176 1.0115
0.14253795 -0.022649275 1.013
0.078235887 -0.01773403 1.0121429
0.081393614 -0.016452745 1.01
0.12984219 -0.016452745 1.01
0.13294674 -0.017444508 1.0115
0.13670686 -0.018766543 1.013
0.079691678 -0.013589566 1.013
0.082545355 -0.012608822 1.0122499
0.086238474 -0.011613702 1.01
0.12305939 -0.011613702 1.01
0.12738492 -0.012270407 1.011
0.13178283 -0.01281302 1.013
0.082931176 -0.0090597095 1.013
0.087378852 -0.0077565219 1.012
0.092545696 -0.0077473964 1.0108572
0.096967675 -0.0062950673 1.0107501
0.10174202 -0.0058068512 1.01
0.10755585 -0.0058068512 1.01
0.1124007 -0.0058068507 1.01
0.11724557 -0.0067746597 1.01
0.12225224 -0.0077507729 1.0113333
0.12731232 -0.0087361485 1.013
0.13119972 -0.0097068315 1.013
0.089410178 -0.0038827329 1.013
0.092325725 -0.0029120496 1.013
0.097184964 -0.0029120494 1.013
0.10281173 -0.002905342 1.011
0.10755585 -0.0029034256 1.01
0.11251295 -0.002905342 1.011
0.11759382 -0.0029120496 1.013
0.12148122 -0.0029120496 1.013
0.098480783 0.00064712216 1.013
0.10325903 0.0016986956 1.013
0.10787532 0.0019413665 1.013
0.1124916 0.0016986956 1.013
0.11662197 0 1.013
0.10690347 0.0058240998 1.013
0.060433127 -0.046730779 1.016
0.061851084 -0.042575635 1.0164286
0.0631245 -0.037698861 1.0175
0.066281497 -0.036021642 1.016
0.067305148 -0.032150406 1.0167501
0.1475088 -0.031802889 1.016
0.15055133 -0.031245843 1.0190001
0.067780681 -0.028642023 1.0190001
0.07071957 -0.026791528 1.0167501
0.1471839 -0.02725962 1.0159999
0.15055133 -0.027340112 1.0190001
0.071549118 -0.022739349 1.0170001
0.14425972 -0.021418273 1.016
0.14740264 -0.022424892 1.0175
0.073699877 -0.018036693 1.0175
0.076028779 -0.016550483 1.016
0.13776153 -0.016225964 1.016
0.14231028 -0.017524043 1.0159999
0.14754654 -0.017566204 1.0185
0.15055133 -0.017575787 1.0190001
0.078034356 -0.012666314 1.0167501
0.13451245 -0.011682695 1.016
0.13753881 -0.012664877 1.0167501
0.14273047 -0.012693624 1.0190001
0.1476185 -0.012693623 1.0190001
0.079068087 -0.0087749576 1.0175
0.081936143 -0.0063324384 1.0167501
0.12768935 -0.0058413474 1.016
0.13289823 -0.0072346092 1.0164286
0.13764693 -0.0082020331 1.0190001
0.14175287 -0.0097643258 1.0190001
0.082410946 -0.0031211346 1.0178
0.087335616 -0.0027259621 1.016
0.12476517 -0.0029206737 1.016
0.12778433 -0.002922111 1.0167501
0.13246562 -0.003417514 1.0190001
0.084074117 0 1.0190001
0.08813037 0.0017080384 1.0178751
0.092599154 0.0019471158 1.0159999
0.09682297 0.0025961546 1.0159999
0.1013717 0.0038942315 1.016
0.11761716 0.0025961543 1.0159999
0.12196091 0.0019509486 1.0170001
0.12643705 0.0013019101 1.0190001
0.089939751 0.0058585955 1.0190001
0.092872575 0.0068350285 1.0190001
0.097914927 0.0072452864 1.0177144
0.10239631 0.0077932547 1.0165
0.10726037 0.0080354465 1.0163749
0.11220404 0.0077980454 1.0170001
0.1169827 0.0075630406 1.01825
0.12187489 0.0065095504 1.0190001
0.10264863 0.011717191 1.0190001
0.10753667 0.01171719 1.0190001
0.11242469 0.011717191 1.0190001
0.058829047 -0.038192984 1.022
0.061770502 -0.036234371 1.022
0.064058296 -0.032643575 1.022
0.064711951 -0.029379217 1.022
0.067326576 -0.026114859 1.022
0.068633892 -0.023503374 1.022
0.070594855 -0.02154476 1.022
0.072555825 -0.017627532 1.022
0.074516796 -0.013710301 1.022
0.076477759 -0.011751687 1.022
0.077458248 -0.0078344587 1.022
0.13922875 -0.0058758436 1.022
0.14184336 -0.0071815862 1.022
0.14609213 -0.0088137649 1.022
0.078438729 -0.0039172289 1.022
0.0803997 -0.0019586144 1.022
0.13334584 -0.0019586144 1.022
0.1362873 -0.0029379218 1.022
0.083341151 0.0019586144 1.022
0.086282611 0.0039172289 1.022
0.12877025 0.0032643573 1.022
0.13203853 0.0006528715 1.022
0.08758992 0.0065287151 1.022
0.091675267 0.0093034189 1.022
0.097067937 0.0097930729 1.022
0.11961906 0.0097930729 1.022
0.12256052 0.0088137649 1.022
0.12615563 0.0065287151 1.022
0.093145996 0.011751687 1.022
0.097067937 0.011751687 1.022
0.10148011 0.013220648 1.022
0.10785326 0.013710301 1.022
0.11275567 0.013710301 1.022
0.1176581 0.011751686 1.022
0.10393132 0.015668916 1.022
0.10589229 0.015668916 1.022
0.059001736 -0.035358552 1.025
0.060968459 -0.035358552 1.025
0.06195182 -0.032412004 1.025
0.063721873 -0.027108222 1.025
0.06401065 -0.022623243 1.0265
0.067524217 -0.022262791 1.025
0.063119382 -0.019701133 1.028
0.067020215 -0.017718242 1.0273333
0.071293764 -0.017188184 1.025
0.072458349 -0.012586879 1.0262001
0.074077785 -0.0082641263 1.0267999
0.076702252 -0.0068752738 1.025
0.14357089 -0.0058930917 1.025
0.14652097 -0.0058930917 1.025
0.074954271 -0.0029551699 1.028
0.077357829 -0.002619152 1.025
0.13898186 -0.002619152 1.025
0.14258753 -0.0029465461 1.025
0.1457506 -0.0029494206 1.0265
0.078018144 0.0015749407 1.0267999
0.081127383 0.0024554548 1.025
0.13308169 0.0032739397 1.025
0.13728066 0.0016878472 1.0262858
0.14195941 0.0019701133 1.0275713
0.14662106 0.00065670442 1.028
0.078899235 0.0059103398 1.028
0.082762323 0.0078740651 1.027
0.087191455 0.0091670314 1.025
0.12390365 0.0098218191 1.025
0.12849267 0.0085122436 1.025
0.13286808 0.0074829808 1.0273999
0.13610119 0.0059103398 1.028
0.084816672 0.01182068 1.028
0.087710634 0.012797112 1.0272501
0.091944374 0.013259456 1.025
0.097352862 0.013750548 1.025
0.11800348 0.013750548 1.025
0.12292028 0.012768365 1.025
0.12713291 0.012797112 1.0272501
0.13018373 0.01182068 1.028
0.088761635 0.016745962 1.028
0.092645846 0.017720798 1.0273333
0.097447842 0.017698441 1.026
0.10202384 0.017924819 1.025
0.10738317 0.018072147 1.025
0.11221266 0.017698441 1.0259999
0.11758875 0.017422471 1.0262858
0.12224283 0.017724449 1.0275714
0.12623876 0.015760906 1.028
0.094021589 0.02232795 1.028
0.097637802 0.022656301 1.028
0.10251815 0.022645764 1.0274999
0.1074225 0.022640493 1.0272499
0.11243141 0.022656301 1.028
0.1173626 0.022656303 1.028
0.12032133 0.021671245 1.028
0.10388398 0.026268177 1.028
0.1075002 0.026596528 1.028
0.11193828 0.026103999 1.028
0.061503794 -0.031705793 1.034
0.062403686 -0.016819267 1.0325
0.063487791 -0.013871283 1.034
0.067732841 -0.013055642 1.0322001
0.069439769 -0.0099080596 1.034
0.071814708 -0.0074195461 1.0325
0.073301263 -0.0029666685 1.0325
0.075776935 0.0024741404 1.0325
0.1444113 0.0039517251 1.031
0.14638954 0.0039517251 1.031
0.078032337 0.0083089722 1.0322
0.13452013 0.0098793125 1.031
0.13784532 0.0083101215 1.0322001
0.14275604 0.0079226149 1.0333334
0.079359733 0.011889671 1.034
0.082155839 0.012853168 1.03175
0.085064195 0.013831038 1.031
0.13301583 0.013048741 1.0316001
0.13788754 0.011889671 1.034
0.14185552 0.011889671 1.034
0.08266639 0.016513433 1.034
0.086512581 0.018073242 1.0314287
0.12462894 0.019758625 1.031
0.12786894 0.018189434 1.0316001
0.13134459 0.017327605 1.0332501
0.088532031 0.022437187 1.033
0.091658324 0.023051729 1.031
0.12311888 0.022933805 1.0316
0.12697558 0.022788536 1.034
0.089279704 0.025760956 1.034
0.092870973 0.027069574 1.0335
0.097321197 0.02795146 1.0325
0.10225785 0.028335072 1.0315001
0.10781392 0.02963794 1.031
0.11275952 0.028650008 1.031
0.11742675 0.027981302 1.0322857
0.12254057 0.026538651 1.0333999
0.062677115 -0.012917848 1.0369999
0.065661736 -0.011924168 1.0369999
0.068646356 -0.0079494454 1.0369999
0.069641232 -0.0039747227 1.0369999
0.071630992 -0.002981042 1.0369999
0.14923121 -0.0019873613 1.0369999
0.073620737 0.0019873613 1.0369999
0.075610489 0.0079494454 1.0369999
0.078263484 0.013249076 1.0369999
0.1382876 0.013911529 1.0369999
0.14226711 0.013911529 1.0369999
0.079589978 0.016892571 1.0369999
0.082242988 0.01921116 1.0369999
0.13331322 0.018879931 1.0369999
0.13649681 0.017091308 1.0369999
0.14127222 0.015898891 1.0369999
0.083569482 0.021860976 1.0369999
0.086222492 0.023185885 1.0369999
0.12933372 0.022854656 1.0369999
0.13198672 0.022523427 1.0369999
0.0678472 -0.0059793321 1.04
0.064101793 -0.0040015532 1.044
0.06797576 -0.0029954156 1.0420001
0.068975434 0 1.0420001
0.071406484 0.0019950271 1.041
0.07314603 0.0075845523 1.0416
0.07411769 0.012004659 1.044
0.075975046 0.01298205 1.0420001
0.077897638 0.017455051 1.041
0.13868766 0.018934552 1.04
0.14301126 0.017273625 1.04
0.078972146 0.02096599 1.0420001
0.08189249 0.023442049 1.041
0.1336989 0.023917329 1.04
0.13695693 0.02296485 1.0420001
0.14222585 0.020674691 1.044
0.062455498 -0.020122752 1.05
0.067443304 0.0030169752 1.04925
0.070312798 0.0040130513 1.0470001
0.06849958 0.0060368255 1.05
0.070514269 0.0070429631 1.05
0.072477154 0.011563395 1.04925
0.074543655 0.017104339 1.05
0.076339617 0.018058732 1.0470001
0.067685068 0.0070630861 1.053
0.068695292 0.010090123 1.053
0.071389221 0.013453498 1.053
0.072062708 0.016816871 1.053
0.062871866 -0.0040513808 1.057
0.066928118 0.0081027616 1.057
0.067408577 0.011761653 1.0582001
