# .PCD v0.7 - Point Cloud Data file format
VERSION 0.7
FIELDS x y z
SIZE 4 4 4
TYPE F F F
COUNT 1 1 1
WIDTH 1254
HEIGHT 1
VIEWPOINT 0 0 0 1 0 0 0
POINTS 1254
DATA ascii
-0.077176198 0.023033844 0.83300006
-0.073522881 0.022349671 0.833
-0.076719522 0.026340684 0.833
-0.073522881 0.026340682 0.833
-0.090150818 0.019294843 0.83899999
-0.086600885 0.017860141 0.83774996
-0.081819788 0.017624337 0.83611107
-0.077005208 0.017624339 0.83611107
-0.072548151 0.018114034 0.83757144
-0.090150811 0.022510653 0.83899999
-0.087526917 0.022456991 0.83699995
-0.082729772 0.02240333 0.83499998
-0.076903723 0.020803092 0.83499998
-0.071918078 0.022409558 0.83525002
-0.068513006 0.022810001 0.83819997
-0.090150818 0.02572646 0.83899999
-0.086354427 0.027067978 0.83785713
-0.081732377 0.027211707 0.83522224
-0.076903723 0.028804282 0.83499998
-0.071639486 0.02743265 0.83499998
-0.068335526 0.027301786 0.838
-0.085321307 0.030550171 0.83899999
-0.081803992 0.031919237 0.83799994
-0.076965123 0.032031588 0.83566666
-0.072211519 0.032057568 0.83633327
-0.068631329 0.031061864 0.83833331
-0.080491796 0.035373881 0.83899999
-0.076839641 0.035966448 0.83779991
-0.073457003 0.035881743 0.83833331
-0.096241906 0.014540126 0.84299999
-0.092198126 0.014540126 0.84299999
-0.08689037 0.014127608 0.84250003
-0.082297355 0.014505629 0.84100002
-0.077206507 0.013873199 0.84180003
-0.073148236 0.014127608 0.84249997
-0.10028568 0.018579051 0.84299999
-0.097025506 0.017766153 0.84277779
-0.092263125 0.01754201 0.84175003
-0.088752046 0.016117366 0.84100002
-0.071892902 0.016136531 0.84200001
-0.068392761 0.01828743 0.84200001
-0.096556172 0.022380058 0.84271431
-0.092823319 0.022573896 0.84133333
-0.066682033 0.022201624 0.84249997
-0.095433153 0.025849111 0.84299999
-0.092346109 0.027650818 0.84249997
-0.088752046 0.028205391 0.84100002
-0.066317953 0.02746468 0.84299999
-0.09058062 0.03069582 0.84299999
-0.086939968 0.031958379 0.84219998
-0.083911024 0.033846471 0.84100002
-0.067853913 0.032675996 0.84200001
-0.085728079 0.035542529 0.84299999
-0.082428463 0.036860093 0.84233332
-0.077997893 0.03834774 0.84250003
-0.072396182 0.037446719 0.84219998
-0.069552973 0.035542529 0.84299999
-0.077640526 0.040793128 0.84299999
-0.074405506 0.040389236 0.84299999
-0.10181397 0.0097624091 0.84899998
-0.097741418 0.0097624091 0.84899998
-0.092854343 0.0097624091 0.84899998
-0.087967277 0.0097624091 0.84899998
-0.083080202 0.0097624091 0.84899998
-0.078193128 0.0097624091 0.84899998
-0.073306054 0.0097624091 0.84899998
-0.11077361 0.013830081 0.84899998
-0.10718624 0.01320364 0.84800005
-0.10230698 0.01297396 0.84633338
-0.097611211 0.012504032 0.8458572
-0.092526235 0.012158933 0.84600002
-0.08791931 0.011988943 0.84540004
-0.082786627 0.012158933 0.84600002
-0.078230068 0.011740668 0.84500003
-0.072670177 0.011988943 0.84540004
-0.067578927 0.013115678 0.84590918
-0.06353192 0.013830081 0.84899998
-0.11118087 0.017490983 0.84899998
-0.10726397 0.017856441 0.847
-0.1026082 0.017582085 0.84500015
-0.067015745 0.016733825 0.84500003
-0.064192928 0.017855588 0.84699994
-0.10721157 0.022299293 0.84842861
-0.10225369 0.02269676 0.84588897
-0.098902263 0.023481335 0.84500003
-0.064192928 0.022725293 0.84699994
-0.10204583 0.027107581 0.84866667
-0.097600147 0.027766282 0.84600008
-0.065084189 0.028441114 0.84799999
-0.064853944 0.025910439 0.84500003
-0.097219989 0.031284649 0.84799999
-0.092730343 0.032630239 0.84600008
-0.088633724 0.03346765 0.84500003
-0.066089623 0.032463431 0.84699994
-0.091578849 0.036994722 0.84850001
-0.08788693 0.037504736 0.84625006
-0.083499447 0.038865659 0.84500003
-0.071339332 0.038865659 0.84500003
-0.0685274 0.037335053 0.84699994
-0.087321937 0.041712869 0.84800005
-0.082777038 0.042150032 0.84588897
-0.077824727 0.043076102 0.84500009
-0.072300822 0.04219415 0.84680003
-0.082473241 0.046606213 0.84833336
-0.077927917 0.047026131 0.84611118
-0.073189221 0.047111731 0.84766674
-0.077867322 0.051089935 0.84899998
-0.074392073 0.050981473 0.84899998
-0.12111569 0.0098084044 0.85299999
-0.11751495 0.0091545107 0.85299999
-0.11279982 0.0089795394 0.852
-0.10789546 0.0089795385 0.85199994
-0.10345978 0.0085766036 0.85250002
-0.098201908 0.0081736697 0.85299999
-0.09273044 0.0072313226 0.85214287
-0.087459765 0.0073467209 0.852
-0.082164951 0.0074599283 0.8515715
-0.076744474 0.0073390552 0.85100001
-0.071636193 0.0076907235 0.85128564
-0.067034289 0.008163874 0.8521111
-0.063012898 0.0098084044 0.85299999
-0.12152487 0.013077872 0.85299999
-0.11765938 0.01305743 0.85166663
-0.11313395 0.012814224 0.85099995
-0.1094017 0.011416309 0.85100001
-0.065314442 0.011416309 0.85100001
-0.06166387 0.012831198 0.85214287
-0.12111569 0.016347339 0.85299999
-0.11772078 0.01796376 0.8521111
-0.11364713 0.018266093 0.85100001
-0.061327592 0.01796866 0.85233331
-0.11675116 0.021796456 0.85299999
-0.11275653 0.022851355 0.85166669
-0.10858526 0.024463516 0.85100001
-0.061481535 0.022538632 0.85220003
-0.11211385 0.026155744 0.85299999
-0.1077235 0.027562659 0.85225004
-0.10395882 0.028812587 0.85100001
-0.063347235 0.027350172 0.852
-0.10638541 0.031059947 0.85299999
-0.10281771 0.032462552 0.85225004
-0.098345056 0.033612661 0.85140002
-0.065314442 0.033433475 0.85100001
-0.063831247 0.031877313 0.85299999
-0.097656347 0.037053972 0.85299999
-0.094097316 0.037855305 0.85140002
-0.066059686 0.037889801 0.85220003
-0.096565217 0.040868349 0.85299999
-0.0930335 0.042274307 0.85250002
-0.089263074 0.043490697 0.85100001
-0.070213027 0.044034332 0.85100001
-0.067789949 0.042420674 0.85133332
-0.091327786 0.046426445 0.85299999
-0.087461032 0.047352988 0.852
-0.084364496 0.0483834 0.85100001
-0.070213027 0.047296133 0.85100001
-0.067842402 0.047351714 0.852
-0.085653901 0.051221669 0.85299999
-0.081920072 0.052439652 0.85175002
-0.076744474 0.053819735 0.85100001
-0.071662404 0.052408513 0.85124993
-0.068741344 0.051494122 0.85299999
-0.081289358 0.056670774 0.85299999
-0.076845102 0.057157345 0.8521111
-0.072457694 0.056963541 0.85271436
-0.080198228 0.060485162 0.85299999
-0.076924831 0.060485166 0.85299999
-0.073651433 0.060485162 0.85299999
-0.10042384 0.0049329489 0.85799998
-0.097131252 0.0049329489 0.85799998
-0.09197747 0.0049214503 0.85600001
-0.087050103 0.0049214503 0.85600001
-0.082122743 0.0049214503 0.85600001
-0.077195384 0.0049214503 0.85600001
-0.072268017 0.0049214503 0.85600001
-0.06734065 0.0049214503 0.85600001
-0.062559105 0.0049329489 0.85799998
-0.12697029 0.0080160424 0.85799992
-0.1226019 0.007974633 0.85685712
-0.11757176 0.0069797207 0.85699999
-0.11194789 0.0065772659 0.85799998
-0.107009 0.0065772659 0.85799998
-0.1018322 0.0065619336 0.85600001
-0.097726062 0.0065619336 0.85600001
-0.062178645 0.0077337078 0.85600001
-0.058854952 0.0086326608 0.85799998
-0.12753843 0.013149421 0.85766667
-0.12416957 0.013123867 0.85600007
-0.058374304 0.013139199 0.85699993
-0.12566698 0.016991267 0.85799998
-0.12258469 0.018382613 0.85640001
-0.058552749 0.017742518 0.85720003
-0.1210025 0.022198271 0.85799998
-0.11832583 0.023391262 0.85649997
-0.060770828 0.02460725 0.85600001
-0.059266526 0.02302043 0.85799998
-0.11606361 0.027131218 0.85799998
-0.11255229 0.028446546 0.85633332
-0.061484605 0.028243145 0.85679996
-0.059266526 0.026309062 0.85799998
-0.11076465 0.031765837 0.85733336
-0.10743304 0.033396106 0.85699993
-0.062933266 0.033277281 0.85749996
-0.10536271 0.036174957 0.85799998
-0.10190073 0.037756853 0.85657138
-0.098547287 0.039371602 0.85600001
-0.064155512 0.037791166 0.85733336
-0.10042384 0.041107908 0.85799998
-0.097324654 0.043021291 0.85679996
-0.065698199 0.042652566 0.85600001
-0.064205401 0.041107908 0.85799998
-0.096252456 0.046836182 0.85749996
-0.092442773 0.048833128 0.85650003
-0.065774947 0.046809353 0.85699999
-0.091024488 0.051482305 0.85733336
-0.087632127 0.053063378 0.85633332
-0.067790598 0.052937213 0.85650003
-0.086225815 0.057196148 0.85760003
-0.083217718 0.058510575 0.85600001
-0.070625558 0.058237161 0.85600001
-0.069063693 0.056663752 0.85699999
-0.085607201 0.060839701 0.85799998
-0.082232393 0.062422693 0.85714281
-0.077195376 0.063158609 0.85600001
-0.072363399 0.062421594 0.85714287
-0.08066833 0.065772653 0.85799998
-0.077114783 0.066925265 0.85771418
-0.073534392 0.066320755 0.85799998
-0.14146602 0.0044155065 0.86400002
-0.1373861 0.0041325106 0.86266667
-0.13235193 0.0033026868 0.86222225
-0.1272894 0.0032997055 0.86155558
-0.12236203 0.0033005571 0.86177772
-0.11743168 0.0033014088 0.86200005
-0.11246978 0.0033014091 0.86199999
-0.10750788 0.0033014091 0.86199999
-0.10272346 0.0030945917 0.86175001
-0.097584076 0.0024760568 0.86200005
-0.092622168 0.0024760568 0.86200005
-0.087660275 0.0024760568 0.86200005
-0.082730345 0.0024773346 0.8623333
-0.07776653 0.0024773346 0.86233336
-0.072718918 0.0024747793 0.86133337
-0.067733988 0.0024741404 0.861
-0.062509768 0.0021190492 0.86057144
-0.057813816 0.0032984277 0.8608889
-0.054229792 0.0037207925 0.86300004
-0.14200437 0.0080376025 0.86342853
-0.13724433 0.0082582068 0.86177778
-0.13201039 0.0082407454 0.86000007
-0.056764465 0.0079111159 0.86000001
-0.053794872 0.0082656601 0.86266667
-0.14091343 0.011590705 0.86400002
-0.13742213 0.01322991 0.86288887
-0.13204493 0.013189028 0.86022228
-0.05610441 0.013185193 0.85999995
-0.053815335 0.013231189 0.86299998
-0.13676891 0.01655815 0.86400002
-0.13218787 0.017977282 0.86250001
-0.12765993 0.018686688 0.86033338
-0.056549564 0.018553179 0.86049998
-0.054580923 0.018171802 0.86199999
-0.13096659 0.022353504 0.86400002
-0.12742242 0.023140952 0.86244446
-0.12270763 0.023633055 0.86033338
-0.056994721 0.023100918 0.861
-0.054707561 0.021525595 0.86400002
-0.12654579 0.02704498 0.86400002
-0.12245797 0.028099455 0.8624444
-0.11775532 0.028579416 0.86033338
-0.057696503 0.02829786 0.86224997
-0.12136418 0.03268414 0.86350006
-0.11740269 0.033031978 0.86177772
-0.112803 0.03352578 0.86033338
-0.061054807 0.032962982 0.85999995
-0.058934964 0.032739144 0.8628
-0.11710677 0.037517752 0.86366671
-0.11252905 0.038016457 0.86244446
-0.1075592 0.038147464 0.86075002
-0.10395818 0.039555579 0.86000001
-0.061974529 0.037966844 0.86133337
-0.059680976 0.03642793 0.86400002
-0.11162553 0.041947316 0.86400002
-0.10759188 0.042985603 0.86266667
-0.1026045 0.043096229 0.86075002
-0.099007793 0.044500031 0.86000001
-0.063100196 0.042933647 0.86166668
-0.1066644 0.047643777 0.86320001
-0.10254683 0.047908332 0.86199999
-0.098017707 0.048455589 0.86000001
-0.066005193 0.049444478 0.86000001
-0.064090282 0.047494486 0.86199999
-0.1016787 0.051882204 0.86400002
-0.097535037 0.052837446 0.86155552
-0.092993766 0.05331124 0.86033338
-0.066056363 0.052782938 0.86066669
-0.064654388 0.052158173 0.86400002
-0.096705288 0.056849647 0.86400002
-0.092599563 0.057805318 0.86177778
-0.088694476 0.058097258 0.86000001
-0.067508854 0.057796378 0.86166668
-0.092214115 0.062321115 0.86333328
-0.087766275 0.062908992 0.861
-0.084156625 0.06427782 0.86000001
-0.070955582 0.06427782 0.86000001
-0.068238072 0.062970243 0.86142856
-0.086570412 0.067436129 0.86350006
-0.082785673 0.067840025 0.86075002
-0.078381166 0.069222264 0.86000001
-0.072055668 0.068123497 0.86000007
-0.068559058 0.067652695 0.86100006
-0.082588524 0.072565995 0.86300004
-0.077636689 0.072594792 0.86088896
-0.0726991 0.072613537 0.8611111
-0.068867981 0.07242351 0.8628
-0.081232436 0.076167487 0.86400002
-0.077642933 0.077549733 0.86324996
-0.073107883 0.077274658 0.86314285
-0.069627807 0.076167487 0.86400002
-0.14506368 -0.0016653973 0.86900002
-0.14172889 -0.0016653973 0.86900002
-0.11088201 -0.0016653973 0.86900002
-0.10754722 -0.0016653973 0.86900002
-0.085871026 -0.0016653973 0.86900002
-0.081702538 -0.0016653973 0.86900002
-0.07586664 -0.0016653973 0.86900002
-0.071698144 -0.0016653972 0.86900002
-0.066695943 -0.0016653973 0.86900002
-0.056691553 -0.0016653972 0.86900002
-0.1506217 0.0044410597 0.86900002
-0.1470139 0.0021632917 0.86870003
-0.14266932 0.001867104 0.86712503
-0.1373215 0.00082982396 0.86750007
-0.13172449 0 0.86900002
-0.127556 0 0.86900002
-0.12310353 0 0.86700004
-0.11824715 0 0.86800003
-0.11299168 0 0.866
-0.10800675 0 0.866
-0.10302183 0 0.866
-0.098036908 0 0.866
-0.092378005 0 0.86750001
-0.087388769 0 0.86750001
-0.082392327 0 0.86750001
-0.077401638 0 0.86750001
-0.073112264 0 0.866
-0.068127334 0 0.866
-0.063973233 0 0.866
-0.058157485 0 0.866
-0.051909316 0.0022668149 0.86763644
-0.048354562 0.0041634934 0.86900002
-0.15145539 0.0086045526 0.86900002
-0.14748459 0.0080660749 0.86642867
-0.14456289 0.0091280639 0.866
-0.050766438 0.0083126128 0.86750001
-0.048354562 0.0066615893 0.86900002
-0.14652267 0.013115005 0.86900002
-0.14243463 0.01362866 0.86720002
-0.051227897 0.012896768 0.86825001
-0.14131203 0.017903021 0.86900002
-0.13777395 0.018615654 0.86720002
-0.13459304 0.019915774 0.866
-0.053172559 0.018256128 0.866
-0.13617088 0.02276043 0.86900002
-0.13263109 0.023671541 0.86675
-0.053947736 0.023615295 0.86780006
-0.13139102 0.027978674 0.86900008
-0.12805729 0.028654799 0.86675
-0.055024154 0.029144453 0.86900002
-0.054834198 0.026554367 0.866
-0.12730177 0.032953016 0.86839998
-0.12395853 0.033524889 0.866
-0.056642629 0.032864287 0.86825001
-0.12561069 0.037193876 0.86900002
-0.12241373 0.038261019 0.86800003
-0.11908437 0.039278332 0.866
-0.060026351 0.039969537 0.86900002
-0.059089039 0.03740532 0.86750001
-0.12138662 0.042301092 0.86900008
-0.11702079 0.043475825 0.86771435
-0.11332401 0.043482773 0.866
-0.060995966 0.043198753 0.86700004
-0.11560631 0.047186255 0.86900002
-0.11248514 0.048269689 0.86849999
-0.10925299 0.048544697 0.866
-0.062732436 0.048240945 0.86800003
-0.11060411 0.052182447 0.86900002
-0.10708384 0.053479705 0.8681429
-0.10335416 0.053440668 0.866
-0.063842118 0.05322947 0.86800003
-0.10504612 0.056623507 0.86900002
-0.10130761 0.057916731 0.86839998
-0.098121807 0.058554333 0.86675
-0.065507598 0.05933018 0.86800003
-0.064804055 0.056428026 0.866
-0.096709125 0.062868744 0.86900002
-0.093882792 0.063896447 0.866
-0.065603413 0.062865779 0.86780006
-0.091932058 0.06824296 0.86849999
-0.088897869 0.068045564 0.866
-0.066465698 0.068045564 0.866
-0.090595327 0.072167218 0.86900002
-0.087251961 0.072844364 0.86780006
-0.084743761 0.074684158 0.866
-0.067053795 0.073629148 0.86825001
-0.085454173 0.077857323 0.86900002
-0.0825326 0.078444622 0.86720002
-0.079758838 0.079663098 0.866
-0.072281443 0.079663098 0.866
-0.068521328 0.078138568 0.86750001
-0.081369057 0.08227063 0.86900008
-0.076623864 0.083189368 0.8681429
-0.07257776 0.082475625 0.8681429
-0.075032942 0.086600661 0.86900002
-0.14640073 -0.0066852253 0.87199998
-0.14258504 -0.0056838151 0.87220001
-0.13735604 -0.0050191893 0.87300003
-0.11725516 -0.0050191893 0.87300003
-0.1113924 -0.0050191893 0.87300003
-0.10887979 -0.0050191893 0.87300003
-0.081241071 -0.0050191893 0.87300003
-0.07872846 -0.0050191893 0.87300003
-0.14651172 -0.0027820505 0.87099999
-0.14205506 -0.0029211529 0.87099999
-0.13709381 -0.0025051229 0.8713333
-0.13217925 -0.0025076782 0.87200004
-0.12711181 -0.0025064005 0.87166667
-0.12200024 -0.0025038451 0.87099999
-0.11698654 -0.0025038451 0.87099999
-0.11245587 -0.0029230691 0.87150002
-0.10666315 -0.0029249857 0.87200004
-0.10206244 -0.0025076782 0.87200004
-0.097042978 -0.0025076782 0.87200004
-0.092023522 -0.0025076782 0.87199998
-0.087422818 -0.0029249857 0.87200004
-0.081965789 -0.0026738346 0.87180007
-0.077383891 -0.0029249857 0.87200004
-0.07191816 -0.0033410154 0.87166667
-0.066879377 -0.0026723016 0.8714
-0.061906736 -0.002507678 0.87200004
-0.056866799 -0.0033410154 0.87166667
-0.052190922 -0.0023399885 0.87180007
-0.048577137 -0.001673063 0.87300003
-0.050137084 0 0.87099999
-0.047506087 0.0013361507 0.87180007
-0.047239281 0.0070990194 0.87150002
-0.15124688 0.012519226 0.87099999
-0.050137084 0.013353841 0.87099999
-0.047981683 0.0105884 0.87233335
-0.1515366 0.016724883 0.87266678
-0.14730753 0.017169224 0.87099993
-0.14289069 0.018361533 0.87099999
-0.050851632 0.017042246 0.87180007
-0.15075664 0.020076757 0.87300003
-0.14679247 0.021184467 0.87266678
-0.14238726 0.021928292 0.87175
-0.1387126 0.023369223 0.87099999
-0.051449038 0.021307599 0.87200004
-0.14154373 0.025095947 0.87300003
-0.13713183 0.026725752 0.87157148
-0.1336989 0.028376913 0.87099999
-0.053479556 0.027542297 0.87099999
-0.13602203 0.031352684 0.87250006
-0.13227494 0.031933613 0.87124991
-0.055150796 0.033384606 0.87099999
-0.05360236 0.030115135 0.87300003
-0.1316727 0.036222227 0.87233335
-0.12826738 0.037140373 0.87099999
-0.057422604 0.03675117 0.87166667
-0.12695183 0.041570012 0.87200004
-0.12367148 0.043399986 0.87099999
-0.0601645 0.043399986 0.87099999
-0.058627579 0.040990047 0.87300003
-0.12563053 0.045172703 0.87300003
-0.12164281 0.046546526 0.87185711
-0.1181007 0.047851264 0.87099999
-0.060616851 0.047183543 0.87150002
-0.11690183 0.051337112 0.87214285
-0.11308698 0.05285896 0.87099999
-0.061222505 0.051459052 0.87180007
-0.11164226 0.056590378 0.87214285
-0.10729335 0.057755362 0.87099999
-0.10361665 0.058423057 0.87099999
-0.062718689 0.056797903 0.87166667
-0.10664636 0.061345641 0.87300009
-0.10218405 0.06198838 0.87124997
-0.098602936 0.063430749 0.87099999
-0.063652799 0.061903339 0.87299997
-0.10158277 0.066339917 0.87266678
-0.0971689 0.066997513 0.87124991
-0.065178208 0.067603827 0.87099999
-0.063652799 0.066922523 0.87299997
-0.096522994 0.07132972 0.87233335
-0.09317141 0.072194204 0.87099999
-0.065277986 0.071888052 0.87233335
-0.095479205 0.075287841 0.87300003
-0.091814615 0.076665044 0.87199998
-0.088157706 0.077201895 0.87099999
-0.066088662 0.076870829 0.87199998
-0.090453982 0.080307029 0.87300003
-0.0869909 0.081872776 0.87185711
-0.083561808 0.083461508 0.87099999
-0.07019192 0.083461508 0.87099999
-0.068067215 0.081917487 0.87233335
-0.085428759 0.086162746 0.87300003
-0.081752181 0.086667024 0.87175
-0.077433944 0.087356381 0.87099999
-0.071909748 0.08685746 0.87157142
-0.076718375 0.091014639 0.87300003
-0.073703237 0.090345405 0.87300003
-0.14102854 -0.010061376 0.875
-0.13982739 -0.010937195 0.87800002
-0.14228772 -0.0079652555 0.875
-0.13793878 -0.0072014811 0.87671429
-0.13301389 -0.0058863838 0.87750006
-0.12812778 -0.0054556611 0.87575001
-0.12306553 -0.0057106451 0.87620002
-0.11776555 -0.0060506235 0.87679994
-0.11319603 -0.0063056075 0.87725002
-0.10733558 -0.0060506235 0.87679994
-0.10258915 -0.0058806338 0.87649995
-0.097912952 -0.0057140947 0.87679994
-0.092129812 -0.0057106451 0.87620002
-0.087086186 -0.0057106451 0.87620002
-0.082452767 -0.0061639496 0.87700003
-0.077320099 -0.005597319 0.87599999
-0.071955256 -0.0057106451 0.87620002
-0.067271575 -0.0058806338 0.87649995
-0.062288947 -0.0057175444 0.87740004
-0.057538491 -0.0057140947 0.87679994
-0.052163292 -0.0050421865 0.87700003
-0.048855357 -0.005047936 0.87800002
-0.050367337 -0.003353792 0.875
-0.046768133 -0.0026887828 0.87679994
-0.045382407 0.001676896 0.87599999
-0.043801352 0.002523968 0.87800002
-0.045382407 0.0067171664 0.87599999
-0.043801352 0.005047936 0.87800002
-0.04708866 0.012177618 0.87650001
-0.048744068 0.01679004 0.87599999
-0.15262166 0.023097565 0.87650001
-0.14886346 0.022917578 0.875
-0.050453678 0.022678342 0.87650001
-0.048855357 0.020191744 0.87800002
-0.15246239 0.025239682 0.87800002
-0.14819509 0.026912743 0.87766677
-0.14301719 0.027323412 0.87542862
-0.13934962 0.028507233 0.875
-0.051669687 0.026432674 0.87575001
-0.14825073 0.030287616 0.87800002
-0.14295605 0.03148951 0.87800014
-0.13886917 0.032241248 0.87620002
-0.053286403 0.031933848 0.87700003
-0.13676268 0.036567353 0.87725002
-0.13390675 0.038053721 0.87599999
-0.055966262 0.0374058 0.87725002
-0.13276589 0.041820586 0.87725008
-0.12927617 0.043599296 0.875
-0.057649493 0.042449422 0.87725002
-0.13140407 0.045431424 0.87800002
-0.12797223 0.047091898 0.87757152
-0.12423942 0.047791533 0.875
-0.058020294 0.047033578 0.87649995
-0.12635006 0.050479364 0.87800002
-0.122614 0.051886283 0.87687504
-0.11836324 0.053660672 0.875
-0.060440805 0.053660672 0.875
-0.058491826 0.051698226 0.87725002
-0.12129606 0.0555273 0.87800002
-0.11756647 0.056927744 0.87687504
-0.11416596 0.057852913 0.875
-0.060509879 0.057081539 0.87599999
-0.058963358 0.056368619 0.87800002
-0.11624206 0.060575232 0.87800002
-0.11247075 0.061942622 0.87650001
-0.10856959 0.063163079 0.875
-0.061805036 0.061732292 0.87650001
-0.11118805 0.065623172 0.87800002
-0.10756281 0.067067452 0.87762511
-0.10365182 0.068272345 0.87599999
-0.062332693 0.067305818 0.87800002
-0.10697638 0.070671104 0.87800002
-0.10246779 0.072082333 0.87725008
-0.098496117 0.073224463 0.875
-0.063944452 0.072273254 0.87700003
-0.10108005 0.076560363 0.87800002
-0.097521581 0.077250563 0.87628567
-0.094019026 0.078814112 0.875
-0.065589786 0.078110777 0.87650001
-0.096868381 0.080766976 0.87800002
-0.092748567 0.082555749 0.87687504
-0.088982292 0.083844803 0.875
-0.066748396 0.082355715 0.87700003
-0.090972044 0.085814908 0.87800002
-0.087870248 0.087524399 0.87585723
-0.083945557 0.088875487 0.875
-0.070514269 0.088875487 0.875
-0.068532191 0.086928844 0.87650001
-0.087181538 0.091283515 0.87800002
-0.082423985 0.092406876 0.87666672
-0.077717282 0.093567438 0.87575001
-0.072136581 0.092637964 0.87687504
-0.069071367 0.090862848 0.87800002
-0.081425592 0.096471667 0.87800002
-0.07728412 0.097383097 0.87800014
-0.073563814 0.096471667 0.87800002
-0.13692306 -0.010975525 0.88100004
-0.13257547 -0.010576902 0.88300002
-0.12721351 -0.010164864 0.884
-0.12212496 -0.010164864 0.884
-0.11703642 -0.010164864 0.884
-0.11279597 -0.010164864 0.884
-0.10685933 -0.010164864 0.884
-0.1017708 -0.010164864 0.884
-0.09753035 -0.010164864 0.884
-0.094137996 -0.010164864 0.884
-0.076328099 -0.010164864 0.884
-0.072882019 -0.010157199 0.88333338
-0.067794748 -0.010157199 0.88333338
-0.062758662 -0.010164864 0.884
-0.059366297 -0.010164864 0.884
-0.1350804 -0.0084323911 0.88
-0.13170339 -0.0084323911 0.87999994
-0.12762699 -0.0075987345 0.88100004
-0.12241354 -0.008106594 0.88120002
-0.1173511 -0.0084323911 0.88
-0.11234795 -0.0084371828 0.88049996
-0.10734287 -0.0084419735 0.88100004
-0.10307684 -0.00843878 0.88066673
-0.097565845 -0.0080155628 0.88049996
-0.093341708 -0.0080155628 0.88050008
-0.088374048 -0.0080251452 0.88150001
-0.083299898 -0.0080251452 0.88150001
-0.077439442 -0.0077692987 0.88120002
-0.073070049 -0.0080155628 0.88050008
-0.067590088 -0.00843878 0.88066667
-0.062581182 -0.0080251452 0.88150001
-0.057116561 -0.0080299359 0.88199997
-0.052442152 -0.0076051224 0.88166672
-0.047160614 -0.0069730128 0.88174999
-0.043227643 -0.00592663 0.88350004
-0.042606354 -0.0023641358 0.88120002
-0.041836552 0.0014493857 0.88228571
-0.04294559 0.0070939409 0.88120002
-0.045641441 0.012663919 0.88100004
-0.04405079 0.011000438 0.88300002
-0.046520233 0.016897364 0.88166666
-0.048060991 0.022312108 0.88199997
-0.050712712 0.027859472 0.88100004
-0.048737355 0.026668396 0.88349998
-0.1517998 0.032630797 0.88066667
-0.14746277 0.032605249 0.88000005
-0.14352292 0.033729564 0.88
-0.051445674 0.032453977 0.88199997
-0.15192541 0.03697056 0.8825714
-0.14723466 0.037188545 0.88199997
-0.14187066 0.037112314 0.88022226
-0.13845742 0.037945762 0.88
-0.052909963 0.03692073 0.8814286
-0.15180811 0.040659457 0.884
-0.1471436 0.041082993 0.884
-0.14226507 0.042291421 0.88266665
-0.13729629 0.042417116 0.88028574
-0.055720668 0.042161956 0.87999994
-0.053287681 0.04224053 0.88166666
-0.14134835 0.046306606 0.884
-0.13690801 0.047131799 0.88225001
-0.13231675 0.047802076 0.88033336
-0.055720668 0.047221392 0.87999994
-0.0533478 0.047365125 0.88266665
-0.1356944 0.051671393 0.884
-0.13207008 0.052428178 0.88244438
-0.12770931 0.052642655 0.8804
-0.12494937 0.053967305 0.88
-0.056421392 0.052642655 0.8804
-0.054236829 0.052480143 0.88333338
-0.12675992 0.057210706 0.88319999
-0.12302613 0.05736262 0.88033342
-0.11988385 0.059026737 0.88
-0.057035837 0.057693988 0.88171434
-0.054277759 0.055906754 0.884
-0.12551732 0.060989186 0.884
-0.12241222 0.062825143 0.88257134
-0.11823372 0.062420499 0.88028574
-0.11481833 0.064086176 0.88
-0.06078618 0.063242935 0.88
-0.058059353 0.062341101 0.8825714
-0.12042878 0.066918686 0.884
-0.11684784 0.0676568 0.8825714
-0.11284842 0.067459129 0.88000005
-0.10975283 0.069145605 0.88
-0.060970377 0.067664832 0.88266665
-0.059366297 0.066071615 0.884
-0.11590564 0.071718775 0.884
-0.11201952 0.072712131 0.88233334
-0.10810525 0.072827749 0.88033336
-0.10468731 0.074205041 0.88
-0.062569343 0.07262972 0.88133335
-0.1102517 0.076236479 0.884
-0.10739199 0.077487543 0.88279998
-0.10351522 0.077844664 0.88028574
-0.099621795 0.079264477 0.88
-0.063460924 0.077754319 0.88200003
-0.10572856 0.081883632 0.884
-0.10231034 0.08256308 0.88279998
-0.098239191 0.083173499 0.88057148
-0.065851696 0.083480671 0.88
-0.063688874 0.082561538 0.88279998
-0.10064002 0.08696606 0.884
-0.097310334 0.087897457 0.88200003
-0.093078829 0.087907679 0.88000005
-0.066557027 0.088074788 0.8804
-0.063957885 0.087573253 0.88300002
-0.096682258 0.091483779 0.884
-0.092655621 0.092787519 0.8825714
-0.088180639 0.093811117 0.8804
-0.067385256 0.093046159 0.88075006
-0.064454839 0.092330851 0.884
-0.09159372 0.096566215 0.884
-0.087981328 0.098014623 0.8817777
-0.083331555 0.098415583 0.88033336
-0.079359733 0.099502221 0.88
-0.072042875 0.098377906 0.88000005
-0.067883663 0.097798489 0.88174999
-0.087070577 0.10221336 0.884
-0.082629845 0.10256033 0.8814286
-0.077691272 0.10290159 0.88022226
-0.07265944 0.10295311 0.88066673
-0.068770505 0.10286368 0.88279998
-0.082773589 0.10639225 0.884
-0.077631757 0.10773201 0.88228571
-0.072982267 0.10796863 0.88200003
-0.068494208 0.10702161 0.88360006
-0.13305035 -0.015333537 0.889
-0.047761664 -0.015333537 0.889
-0.040938571 -0.015333537 0.889
-0.1325296 -0.012931456 0.88780004
-0.12783709 -0.012769003 0.88833332
-0.12274664 -0.011494404 0.88849998
-0.11707336 -0.012331894 0.88750005
-0.11247976 -0.011916119 0.88819999
-0.10728242 -0.012331894 0.88750005
-0.10234642 -0.011926085 0.889
-0.097229101 -0.011926085 0.889
-0.092059985 -0.011068472 0.88849998
-0.086568028 -0.01064829 0.889
-0.082143851 -0.011235395 0.88819999
-0.077711903 -0.011235395 0.88819999
-0.072332293 -0.011899254 0.88700002
-0.068077452 -0.011899254 0.88700002
-0.062734678 -0.01219279 0.8876667
-0.057931069 -0.011629992 0.88800001
-0.052819505 -0.011062723 0.88800001
-0.047701545 -0.011912456 0.88788891
-0.0426226 -0.011920974 0.88855559
-0.039232794 -0.011926084 0.889
-0.041867632 -0.0074795312 0.88699996
-0.038379908 -0.006814905 0.889
-0.040846471 -0.003399787 0.88700002
-0.038664203 -0.0028395439 0.889
-0.039203376 0.0017037262 0.88833332
-0.040877171 0.006805962 0.8876667
-0.042997874 0.012331894 0.88749999
-0.043447345 0.017018098 0.88800001
-0.045952279 0.022098616 0.88700002
-0.044350117 0.022148443 0.889
-0.046674497 0.027563572 0.88780004
-0.044350117 0.025555896 0.889
-0.048185982 0.032086343 0.88785714
-0.051058087 0.038247604 0.88700002
-0.048762873 0.037125133 0.88859999
-0.15522541 0.042593159 0.889
-0.15249503 0.043397114 0.88800001
-0.14840885 0.043517273 0.88699996
-0.051058087 0.042497337 0.88700002
-0.049467441 0.042593155 0.889
-0.15147272 0.047363594 0.88900006
-0.14767703 0.047385935 0.88757145
-0.14352995 0.048163649 0.88700002
-0.13955878 0.049296908 0.88700002
-0.051096465 0.047634069 0.8876667
-0.1501081 0.051111791 0.889
-0.14726514 0.051679701 0.889
-0.14299582 0.052312315 0.88871431
-0.13838807 0.052957065 0.88728577
-0.052363321 0.052300476 0.88750005
-0.1375991 0.057358783 0.889
-0.1328184 0.057825763 0.8874445
-0.12877984 0.058929637 0.88700002
-0.053934302 0.057838541 0.8876667
-0.13219747 0.06218601 0.889
-0.12776968 0.062956832 0.88785714
-0.0561639 0.063746005 0.88700002
-0.054584764 0.061334148 0.889
-0.12679584 0.067013234 0.889
-0.12310517 0.068283476 0.88757145
-0.11913554 0.069695637 0.88700002
-0.058284502 0.067747757 0.88819999
-0.12167853 0.072124414 0.889
-0.11808982 0.073718257 0.8876667
-0.11402974 0.074795313 0.88700002
-0.061315756 0.073151626 0.8876667
-0.059702083 0.072408363 0.889
-0.11727194 0.077093616 0.889
-0.11232781 0.077911779 0.88700002
-0.10892392 0.07989499 0.88700002
-0.061407857 0.077519551 0.889
-0.11258107 0.081778869 0.889
-0.10756238 0.083634757 0.88699996
-0.10381812 0.084994674 0.88700002
-0.061798804 0.082582816 0.88849998
-0.1108753 0.085186318 0.889
-0.1074241 0.087141424 0.88866663
-0.1032508 0.087827832 0.88700002
-0.06176427 0.087217279 0.88800001
-0.10661086 0.09029749 0.889
-0.10204782 0.091711596 0.88824999
-0.097491495 0.093121864 0.88749999
-0.062189754 0.091897734 0.88800001
-0.10064065 0.095408678 0.889
-0.09693481 0.096818477 0.88824999
-0.093039185 0.098027192 0.88700002
-0.064320043 0.096578196 0.88800001
-0.096091919 0.10108776 0.889
-0.092248261 0.1023503 0.88824999
-0.088500686 0.1036935 0.88700002
-0.066375509 0.1019936 0.88700002
-0.064819403 0.10137172 0.889
-0.090832457 0.10690883 0.889
-0.087036431 0.10733644 0.88725001
-0.066375509 0.1070933 0.88700002
-0.064819403 0.1064829 0.889
-0.13136376 -0.016544735 0.89299995
-0.12757903 -0.015965005 0.89249998
-0.12179109 -0.015419777 0.89399999
-0.11750267 -0.015419777 0.89399999
-0.11492962 -0.015419777 0.89399999
-0.10806815 -0.015419777 0.89399999
-0.066041648 -0.015419777 0.89399999
-0.061753232 -0.015419777 0.89399999
-0.057464812 -0.015419777 0.89399999
-0.052575827 -0.016553357 0.89349991
-0.047934737 -0.016415566 0.89219999
-0.043595091 -0.016221812 0.89099997
-0.03818132 -0.015937218 0.89099997
-0.12309202 -0.013660473 0.89099997
-0.11881799 -0.013660474 0.89099997
-0.11197954 -0.013660474 0.89099997
-0.10770551 -0.013660474 0.89099997
-0.10268988 -0.013675805 0.89199996
-0.097668499 -0.013691138 0.89299995
-0.092124738 -0.013268081 0.89324999
-0.087708242 -0.013005046 0.89279997
-0.082337648 -0.013706469 0.89399999
-0.077107117 -0.013691138 0.89299995
-0.071803674 -0.013660473 0.89099997
-0.067529649 -0.013660474 0.89099997
-0.064965233 -0.013660474 0.89099997
-0.05727198 -0.013660474 0.89099997
-0.052997947 -0.013660473 0.89099997
-0.036776792 -0.011960581 0.89149994
-0.033598177 -0.011643599 0.89340001
-0.035901837 -0.0068302373 0.89099997
-0.03341129 -0.0068446104 0.89299995
-0.036512002 -0.0022786621 0.89199996
-0.034307349 -0.0034266172 0.89399999
-0.036817085 0.0017104339 0.89249992
-0.038991515 0.0064205956 0.89324999
-0.041076723 0.011968247 0.89199996
-0.041168824 0.01627643 0.89399999
-0.042740285 0.022198269 0.89099997
-0.043667041 0.027365504 0.89249998
-0.046159502 0.033297405 0.89099997
-0.044599555 0.031696208 0.89399999
-0.046703473 0.038088061 0.89324999
-0.047922838 0.04273881 0.89199996
-0.049690019 0.047920894 0.89299995
-0.1504458 0.053788118 0.89099997
-0.14745396 0.054215003 0.89099997
-0.14360735 0.054641895 0.89099997
-0.051288337 0.053788118 0.89099997
-0.04974566 0.051399257 0.89399999
-0.15095235 0.056539185 0.89399999
-0.14708069 0.057186563 0.89340001
-0.14203508 0.058113687 0.89185709
-0.13847852 0.059764571 0.89099997
-0.05299795 0.058057014 0.89099997
-0.14066014 0.061679106 0.89399999
-0.13661233 0.062239099 0.89219999
-0.13249488 0.064887255 0.89099997
-0.12993047 0.064887255 0.89099997
-0.054707561 0.063179694 0.89099997
-0.13551404 0.065105729 0.89399999
-0.1320833 0.067390144 0.89399999
-0.12907565 0.067448586 0.89099997
-0.056417171 0.068302371 0.89099997
-0.054891761 0.065105729 0.89399999
-0.12753816 0.071569152 0.89340001
-0.12423176 0.07285586 0.89099997
-0.057366952 0.071838222 0.89249998
-0.12522183 0.076242238 0.89399999
-0.12223087 0.076603293 0.89219999
-0.11881799 0.078547724 0.89099997
-0.059079442 0.076969527 0.89249992
-0.12007573 0.081382155 0.89399999
-0.11724076 0.082055785 0.89199996
-0.11454395 0.0836704 0.89099997
-0.059079442 0.082100831 0.89249998
-0.11664499 0.085665427 0.89399999
-0.11319195 0.087410361 0.89212495
-0.10941512 0.088793084 0.89099997
-0.059079442 0.087232135 0.89249998
-0.11149889 0.090805359 0.89399999
-0.10782736 0.092597246 0.89199996
-0.10428628 0.093915753 0.89099997
-0.060037866 0.094231971 0.89399999
-0.059836395 0.091354415 0.89099997
-0.10635279 0.095945284 0.89399999
-0.1028242 0.097565778 0.89314282
-0.099157453 0.099038437 0.89099997
-0.062012263 0.097185992 0.89279997
-0.10120669 0.10108521 0.89399999
-0.097922161 0.1029342 0.89219999
-0.063967474 0.10268161 0.89299995
-0.1306596 -0.020605698 0.89600003
-0.12578212 -0.020651693 0.898
-0.056860406 -0.020651693 0.898
-0.053295355 -0.020605698 0.89600003
-0.1306596 -0.018888557 0.89600003
-0.12679139 -0.018459272 0.89600003
-0.1221998 -0.018051067 0.89700001
-0.11699165 -0.01718419 0.89666671
-0.11187305 -0.01633201 0.89700001
-0.10674933 -0.016624587 0.89733332
-0.1028998 -0.016156461 0.89680004
-0.098141156 -0.01633776 0.89733332
-0.092575356 -0.016156461 0.89679992
-0.087777317 -0.01633201 0.89700001
-0.082521841 -0.015454274 0.89600009
-0.077124007 -0.01616336 0.89719999
-0.072287202 -0.01633201 0.89700001
-0.067138799 -0.01719518 0.89719999
-0.061960459 -0.018051067 0.89700001
-0.056733768 -0.018029986 0.89599997
-0.053295355 -0.018888557 0.89600003
-0.04126092 -0.017171415 0.89600003
-0.030945692 -0.010302849 0.89600003
-0.030945692 -0.0085857073 0.89600003
-0.032682166 -0.0021473852 0.89649999
-0.032687921 0.0017184191 0.89666665
-0.036823224 0.0072188936 0.89680004
-0.03321914 0.0066364021 0.8977142
-0.037877515 0.012037878 0.89733326
-0.03446085 0.011186333 0.898
-0.04126092 0.018888557 0.89600003
-0.038923107 0.016858649 0.8976
-0.04126092 0.022322841 0.89600009
-0.039629977 0.022372669 0.898
-0.041736774 0.02793517 0.89699996
-0.042740285 0.032662097 0.89700001
-0.044069979 0.037484281 0.89719999
-0.046453074 0.042961758 0.89666671
-0.044799108 0.041303385 0.898
-0.047787569 0.047731169 0.89750004
-0.049106717 0.05248972 0.898
-0.15129004 0.058382813 0.89600003
-0.14957085 0.058382813 0.89600003
-0.051633716 0.057589401 0.89700001
-0.15145889 0.061027516 0.89700001
-0.1478435 0.061689176 0.89724994
-0.14332081 0.062413111 0.89633328
-0.13925561 0.063534237 0.89600003
-0.053374667 0.061910361 0.89733332
-0.14645861 0.065397024 0.898
-0.14238574 0.066520065 0.89766663
-0.13786738 0.067240179 0.89674997
-0.13323839 0.068685658 0.89600003
-0.055014562 0.067827091 0.89600003
-0.053414322 0.066257514 0.898
-0.13726906 0.071707264 0.89799994
-0.13244489 0.072156578 0.89644444
-0.12894039 0.073837079 0.89600003
-0.055055495 0.072174884 0.89666671
-0.053414322 0.073141411 0.898
-0.13205132 0.076842085 0.89766663
-0.12779407 0.077567056 0.89657134
-0.12378277 0.078988507 0.89600003
-0.055935565 0.077357613 0.89700001
-0.053414322 0.079164825 0.898
-0.12747402 0.082586765 0.89777768
-0.12259424 0.082694933 0.89628571
-0.055935562 0.082514778 0.89700001
-0.12578212 0.086048722 0.898
-0.122053 0.087506667 0.89749992
-0.11793747 0.087917648 0.89600003
-0.056366328 0.08724267 0.89699996
-0.12061299 0.091211647 0.898
-0.11685462 0.09264084 0.89724994
-0.1123214 0.093298018 0.89599997
-0.058054827 0.092347145 0.89649999
-0.11544386 0.096374564 0.898
-0.11138249 0.097486109 0.89766663
-0.10767059 0.098264955 0.89639997
-0.1048715 0.099594206 0.89600003
-0.060790017 0.099095933 0.89666671
-0.058583446 0.096374564 0.898
-0.11027472 0.10153749 0.898
-0.10290414 0.10306745 0.89633328
-0.12331315 -0.021176323 0.90199995
-0.077968635 -0.020766679 0.903
-0.066706493 -0.020766679 0.903
-0.061908171 -0.02118782 0.90250003
-0.11764403 -0.019008016 0.90166664
-0.11262137 -0.019036124 0.90300006
-0.10734415 -0.018446496 0.90233332
-0.10222554 -0.019036124 0.90300006
-0.09654171 -0.018593902 0.90250003
-0.092594355 -0.019015042 0.90200001
-0.088233978 -0.019008016 0.90166664
-0.083074443 -0.01815168 0.90199995
-0.078228153 -0.01856228 0.90100002
-0.072718285 -0.01902207 0.90233332
-0.068287551 -0.018993961 0.90100002
-0.039762374 -0.017267236 0.90100002
-0.031152917 0.007779839 0.90200001
-0.029454818 0.0077875052 0.903
-0.032594223 0.012100481 0.90199995
-0.036757123 0.017709458 0.90149999
-0.034652729 0.016440287 0.903
-0.037663735 0.0220531 0.90250003
-0.039104626 0.027306 0.90179998
-0.041491173 0.034534473 0.90100002
-0.039850637 0.032880578 0.90300006
-0.041969419 0.038462725 0.90200001
-0.045048546 0.044994473 0.903
-0.043828219 0.042624462 0.90166664
-0.045863058 0.047536649 0.90200001
-0.047358725 0.0519167 0.90300006
-0.050209358 0.057067487 0.90233332
-0.15143874 0.063959688 0.90200001
-0.051863965 0.062162053 0.90100002
-0.15131693 0.066338003 0.90300006
-0.14733577 0.067900732 0.90185708
-0.14349031 0.069068946 0.90100002
-0.05238251 0.067886017 0.90250003
-0.14640778 0.070952818 0.903
-0.14189637 0.072592489 0.90185708
-0.13830391 0.074249126 0.90100002
-0.05238251 0.072211452 0.90250003
-0.14034355 0.076144494 0.903
-0.13706599 0.077818193 0.90233332
-0.13398191 0.078565925 0.90100002
-0.052624561 0.077460714 0.90219992
-0.13514563 0.082201436 0.903
-0.13235162 0.082944699 0.90166664
-0.053219087 0.082543053 0.90199995
-0.13168035 0.086527832 0.903
-0.12805335 0.08814723 0.90185708
-0.12447352 0.089789636 0.90100002
-0.053711727 0.086527832 0.903
-0.12648246 0.091719508 0.903
-0.12320024 0.092635177 0.90179998
-0.11928712 0.094969809 0.90100002
-0.056247361 0.092481293 0.90200001
-0.12215087 0.095180616 0.903
-0.11768976 0.097668171 0.90200001
-0.11410072 0.098423257 0.90100002
-0.057978079 0.096801937 0.90200001
-0.12282722 -0.026102083 0.90799999
-0.12502612 -0.024281453 0.90499997
-0.12175272 -0.023453547 0.90650004
-0.11804377 -0.021563923 0.90739995
-0.11310465 -0.022378417 0.9068749
-0.10795975 -0.021740237 0.90749997
-0.10244644 -0.022378419 0.90687501
-0.097675629 -0.022095054 0.90671432
-0.092185669 -0.021717241 0.90650004
-0.086967595 -0.021717241 0.90650004
-0.082123891 -0.02224618 0.90679997
-0.077966444 -0.022570062 0.90585709
-0.073012494 -0.022573896 0.9059999
-0.068066768 -0.023077101 0.9062857
-0.063486353 -0.023454504 0.90649998
-0.10766137 -0.019078285 0.90499997
-0.03125653 0.013875117 0.90499997
-0.029552676 0.012156059 0.90599996
-0.032526471 0.017608913 0.90585709
-0.029617913 0.01653132 0.90799999
-0.03646595 0.023414258 0.90499997
-0.03355081 0.022341181 0.90671432
-0.036930289 0.028208265 0.90574998
-0.034844603 0.026972152 0.90799999
-0.03755619 0.03264907 0.90620005
-0.039294966 0.037859134 0.90620005
-0.041140679 0.042249475 0.90599996
-0.04514832 0.048562907 0.90499997
-0.042801298 0.046574779 0.90679997
-0.045619853 0.052509844 0.90574998
-0.043555751 0.051334098 0.90799999
-0.047491945 0.057122607 0.90714276
-0.050357744 0.062438026 0.90499997
-0.048085552 0.062645003 0.90799999
-0.15194148 0.068508387 0.90499997
-0.050357744 0.067641199 0.90499997
-0.048782449 0.067865424 0.90799999
-0.15217075 0.073386714 0.90739995
-0.14791906 0.073375218 0.90542847
-0.14412734 0.074578747 0.90499997
-0.050357744 0.072844364 0.90499997
-0.048782449 0.073085837 0.90799999
-0.15215476 0.077146158 0.90799999
-0.14800897 0.077394016 0.90749997
-0.14239086 0.078047521 0.90499985
-0.13891791 0.07978192 0.90499997
-0.050357744 0.078047529 0.90499997
-0.048782445 0.076566115 0.90799999
-0.147654 0.080481425 0.90799999
-0.14304516 0.082245111 0.90757138
-0.13747086 0.083250701 0.90499991
-0.051309444 0.082518615 0.90649998
-0.14170139 0.085846849 0.90799999
-0.13782093 0.087463059 0.90757138
-0.13312966 0.087875746 0.90499997
-0.052266903 0.086136878 0.90799999
-0.13676506 0.091357291 0.90799999
-0.13221698 0.092092574 0.90666664
-0.12792026 0.093078911 0.90499997
-0.055567164 0.093657039 0.90499997
-0.054009136 0.093097433 0.90799999
-0.13124801 0.09628769 0.90799999
-0.12680888 0.097110964 0.90687501
-0.12242141 0.097993009 0.90499997
-0.056335431 0.097602621 0.90620005
-0.12047867 -0.027031563 0.91000003
-0.11706766 -0.027482478 0.91257149
-0.11256462 -0.027733261 0.91257149
-0.10686126 -0.026245818 0.91299993
-0.1024817 -0.026245818 0.91299999
-0.098978058 -0.026245818 0.91299999
-0.092846662 -0.026245818 0.91299999
-0.086715281 -0.026245818 0.91299999
-0.08187829 -0.02691121 0.91180003
-0.076953612 -0.027077561 0.91150004
-0.072581254 -0.027077558 0.91150004
-0.068096638 -0.026159579 0.91000003
-0.11785956 -0.024415605 0.91000003
-0.11174833 -0.024415605 0.91000003
-0.10738316 -0.024415605 0.91000003
-0.10476406 -0.024415605 0.91000003
-0.096906751 -0.024415605 0.91000003
-0.092645198 -0.024442434 0.91100001
-0.087401241 -0.024442434 0.91100001
-0.082938209 -0.024415605 0.91000003
-0.029683148 0.019183692 0.91000003
-0.03142922 0.023543619 0.91000003
-0.029781006 0.022746377 0.91299993
-0.032736439 0.028206076 0.91171426
-0.029781006 0.026245818 0.91299999
-0.035851948 0.034936927 0.91149998
-0.033588968 0.032152325 0.91180003
-0.029781006 0.031494983 0.91299999
-0.035851948 0.0375572 0.91149998
-0.040159557 0.043599296 0.91000003
-0.037913974 0.04078275 0.912
-0.040785711 0.047138985 0.91100001
-0.042579751 0.052432224 0.912
-0.045397758 0.058423057 0.91000003
-0.043795597 0.057740796 0.91299993
-0.045909107 0.062887914 0.91150004
-0.046345621 0.068127006 0.91149998
-0.046505261 0.072993465 0.91120005
-0.048094571 0.077733234 0.91149998
-0.15016182 0.082838662 0.91000003
-0.14783372 0.083129324 0.91000003
-0.050635964 0.083710648 0.91000003
-0.048970483 0.081229798 0.91149998
-0.15016182 0.08545462 0.91000003
-0.1473681 0.086849794 0.91000003
-0.14375956 0.087779917 0.91000003
-0.051329274 0.087388314 0.912
-0.14540139 0.091860369 0.91299999
-0.14203428 0.092634618 0.912
-0.13837586 0.092866495 0.91000003
-0.052468374 0.09171088 0.91149998
-0.11060666 -0.028933642 0.91500002
-0.10721143 -0.028966224 0.91600007
-0.10243421 -0.028542686 0.91649997
-0.09679883 -0.027687471 0.91724998
-0.092762247 -0.027226083 0.91650003
-0.088544048 -0.028076414 0.9156
-0.084271751 -0.028056866 0.91500002
-0.029846245 0.028933642 0.91500002
-0.031601906 0.033317529 0.91500002
-0.032497004 0.036845714 0.91549999
-0.029944101 0.036945373 0.91799998
-0.036322046 0.042716771 0.91599995
-0.033466939 0.041343629 0.91799998
-0.040380213 0.049099512 0.91500002
-0.038279176 0.047023997 0.91724998
-0.040885326 0.05313269 0.91650003
-0.042135876 0.057867285 0.91500002
-0.043244533 0.06285888 0.91619998
-0.042921029 0.067116849 0.91680002
-0.043244533 0.071638145 0.91619998
-0.04608611 0.077594772 0.91500002
-0.044035442 0.076529697 0.91799998
-0.047211941 0.082597189 0.917
-0.05091418 0.089431256 0.91500002
-0.048839048 0.087454922 0.91724998
-0.11121108 -0.031736456 0.92000002
-0.10591532 -0.031736456 0.92000002
-0.03239755 0.042361271 0.921
-0.036216512 0.04764349 0.92075002
-0.033649221 0.04599103 0.92299998
-0.038456179 0.05253955 0.92150003
-0.04060087 0.058183502 0.92000002
-0.038962252 0.056604344 0.92299998
-0.040667068 0.062694833 0.92149997
-0.040733267 0.067217655 0.92300004
-0.042366125 0.07405173 0.92000002
-0.043000598 0.077662326 0.921
-0.045896638 0.084630549 0.92000002
-0.044275288 0.082253188 0.92299998
-0.046816681 0.088228688 0.92075002
-0.028397582 0.024818059 0.92500001
-0.031108785 0.044389836 0.92649996
-0.03549698 0.049636118 0.92500001
-0.031990044 0.047929924 0.92628568
-0.036229946 0.053570598 0.92559993
-0.0329412 0.052464806 0.92799997
-0.036962908 0.05786537 0.92620003
-0.03338635 0.057355594 0.92799997
-0.03784718 0.061906073 0.9267143
-0.038728166 0.067137167 0.92799997
-0.040821526 0.072681464 0.92500001
-0.039173316 0.071138717 0.92799997
-0.041457277 0.07808394 0.92599994
-0.041610904 0.082058288 0.92679995
-0.04350682 0.08691112 0.92549998
-0.030335527 0.049904428 0.93000001
-0.030433385 0.052747481 0.93300003
-0.035688855 0.063271686 0.93000001
-0.033047687 0.062449526 0.93099999
-0.036425658 0.068128742 0.93059999
-0.032939661 0.067588307 0.93299997
-0.037901562 0.072857007 0.93180001
-0.039257739 0.077530086 0.93000001
-0.039321057 0.08122693 0.93150002
-0.034086693 0.069883443 0.935
-0.03588073 0.07346721 0.935
-0.033189677 0.072571263 0.935
-0.036796939 0.077093132 0.93549997
-0.033433549 0.076842085 0.9368
-0.032465346 0.079264477 0.94
