-0.311294 0.512397 -0.532133 0.51465 0.733667 0.443698
-0.305785 -0.407714 -0.149509 -0.580461 -0.694534 0.425074
-0.305785 -0.402205 -0.140507 -0.570881 -0.658741 0.490056
-0.305785 -0.396696 -0.134698 -0.570255 -0.583717 0.578
-0.305785 -0.391184 -0.129379 -0.638171 -0.569402 0.518188
-0.305785 -0.385675 -0.122589 -0.501365 -0.671857 0.545198
-0.305785 -0.380166 -0.1158 -0.552902 -0.604465 0.573517
-0.305785 -0.374657 -0.110975 -0.532818 -0.587532 0.609025
-0.305785 -0.369145 -0.105169 -0.548191 -0.600453 0.582188
-0.305785 -0.363636 -0.09961 -0.561605 -0.622616 0.54493
-0.305785 -0.358127 -0.0925786 -0.565978 -0.603783 0.56135
-0.305785 -0.352618 -0.0877563 -0.576255 -0.505015 0.642565
-0.305785 -0.347109 -0.0839183 -0.573085 -0.531684 0.623607
-0.305785 -0.341597 -0.078362 -0.506854 -0.59092 0.627624
-0.305785 -0.336088 -0.0735422 -0.544076 -0.544253 0.638568
-0.305785 -0.330579 -0.0689703 -0.496338 -0.594997 0.632161
-0.305785 -0.32507 -0.0631711 -0.603978 -0.552941 0.573993
-0.305785 -0.319559 -0.0583562 -0.562351 -0.519429 0.643393
-0.305785 -0.314049 -0.0542753 -0.499867 -0.483878 0.718328
-0.305785 -0.30854 -0.0509331 -0.51423 -0.259407 0.817481
-0.305785 -0.303031 -0.0507794 -0.537782 -0.170038 0.825759
-0.305785 -0.297522 -0.0486645 -0.427562 -0.0250967 0.903637
-0.305785 -0.292011 -0.0504719 -0.504051 0.235885 0.830838
-0.305785 -0.286501 -0.051791 -0.280097 0.142793 0.949292
-0.305785 -0.280992 -0.0521306 -0.393519 -0.0457421 0.918178
-0.305785 -0.275483 -0.051243 -0.528715 -0.116663 0.840744
-0.305785 -0.269972 -0.0506009 -0.587906 -0.244231 0.771179
-0.305785 -0.264463 -0.0477521 -0.657063 -0.400967 0.638353
-0.305785 -0.258954 -0.043681 -0.650668 -0.5133 0.559602
-0.305785 -0.253444 -0.0376463 -0.679558 -0.482344 0.552761
-0.305785 -0.247935 -0.0340637 -0.578823 -0.475034 0.662802
-0.305785 -0.242424 -0.0297471 -0.57384 -0.321832 0.753082
-0.305785 -0.236915 -0.0293554 -0.442317 -0.27023 0.85518
-0.305785 -0.231406 -0.0262661 -0.46178 -0.332878 0.822162
-0.305785 -0.225896 -0.0248926 -0.432894 -0.217853 0.874725
-0.305785 -0.220385 -0.0235215 -0.458893 -0.0432803 0.887437
-0.305785 -0.214876 -0.024357 -0.442807 0.0559532 0.89487
-0.305785 -0.209367 -0.0242108 -0.357781 -0.0453439 0.932704
-0.305785 -0.203857 -0.0238215 -0.569708 -0.0580244 0.819796
-0.305785 -0.198348 -0.0234298 -0.530981 -0.0597605 0.845274
-0.305785 -0.192838 -0.0230405 -0.517757 -0.0413442 0.854528
-0.305785 -0.187328 -0.0228967 -0.391269 -0.105151 0.914249
-0.305785 -0.181818 -0.0217736 -0.518035 -0.0222253 0.85507
-0.305785 -0.176309 -0.0226116 -0.605811 -0.00292309 0.795603
-0.305785 -0.170799 -0.0217339 -0.624988 -0.0890123 0.775543
-0.305785 -0.165289 -0.0213471 -0.554439 -0.112895 0.824532
-0.305785 -0.15978 -0.020224 -0.62651 -0.0545372 0.777503
-0.305785 -0.15427 -0.0205736 -0.51774 0.0351254 0.854817
-0.305785 -0.148761 -0.0206777 -0.569684 0.0519913 0.820218
-0.305785 -0.143251 -0.0212727 -0.569664 0.0520481 0.820228
-0.305785 -0.137741 -0.0213769 -0.627358 -0.00246012 0.778727
-0.305785 -0.132232 -0.021238 -0.582198 0.0336014 0.812352
-0.305785 -0.126722 -0.0218331 -0.636886 0.0489793 0.769401
-0.305785 -0.121212 -0.0219397 -0.624099 0.101025 0.774787
-0.305785 -0.115703 -0.0232686 -0.546953 0.196575 0.813757
-0.305785 -0.110193 -0.0246 -0.500793 0.25499 0.827156
-0.305785 -0.104683 -0.0266653 -0.544567 0.0349321 0.837989
-0.305785 -0.0991739 -0.0250612 -0.675322 0.0307547 0.736882
-0.305785 -0.093664 -0.0271265 -0.519764 0.300022 0.799895
-0.305785 -0.0881545 -0.0291942 -0.588321 0.139521 0.7965
-0.305785 -0.0826449 -0.0290579 -0.594043 0.0158513 0.804277
-0.305785 -0.0771353 -0.0294099 -0.551909 0.143968 0.821383
-0.305785 -0.0716254 -0.0309893 -0.590817 0.104726 0.79998
-0.305785 -0.0661158 -0.0308529 -0.613211 0.102573 0.783231
-0.305785 -0.0606062 -0.0324323 -0.594495 0.189189 0.781526
-0.305785 -0.0550967 -0.0335207 -0.668437 0.144254 0.729646
-0.305785 -0.0495871 -0.0346091 -0.554354 0.108213 0.825216
-0.305785 -0.0440772 -0.0349661 -0.625125 0.259975 0.735956
-0.305785 -0.0385676 -0.0385017 -0.535067 0.281423 0.796558
-0.305785 -0.033058 -0.0388587 -0.500507 0.255519 0.827166
-0.305785 -0.0275485 -0.0419058 -0.60339 0.203952 0.770924
-0.305785 -0.0220386 -0.0417744 -0.553082 0.126466 0.823472
-0.305785 -0.016529 -0.0435992 -0.381602 0.447462 0.8088
-0.305785 -0.0110194 -0.0478711 -0.535768 0.341527 0.772212
-0.305785 -0.00550984 -0.0484711 -0.579899 0.286512 0.762646
-0.305785 -2.47934e-007 -0.0520091 -0.4871 0.33827 0.805176
-0.305785 0.00550959 -0.0531025 -0.451719 0.173436 0.87514
-0.305785 0.0110192 -0.0541934 -0.398579 0.234776 0.886575
-0.305785 0.0165288 -0.0560207 -0.51361 0.332393 0.791024
-0.305785 0.0220384 -0.0588248 -0.312281 0.487425 0.815413
-0.305785 0.0275481 -0.0626058 -0.459055 0.344197 0.819022
-0.305785 0.0330577 -0.0634538 -0.469675 0.134371 0.872554
-0.305785 0.0385674 -0.0643042 -0.467167 0.29486 0.833554
-0.305785 0.044077 -0.0673538 -0.432333 0.333553 0.837753
-0.305785 0.0495867 -0.0686901 -0.437467 0.29993 0.847741
-0.305785 0.0550963 -0.0712513 -0.565421 0.305137 0.766284
-0.305785 0.060606 -0.0730786 -0.600918 0.220723 0.768231
-0.305785 0.0661156 -0.0744174 -0.644815 0.0834991 0.759764
-0.305785 0.0716252 -0.0742885 -0.626346 -0.0352812 0.778746
-0.305785 0.077135 -0.0739191 -0.631108 -0.136159 0.763651
-0.305785 0.0826446 -0.0723249 -0.613653 -0.0876368 0.784697
-0.305785 0.0881542 -0.0726868 -0.625201 0.0684117 0.777459
-0.305785 0.0936638 -0.0732943 -0.551322 0.145213 0.821558
-0.305785 0.0991734 -0.0746356 -0.565162 0.126072 0.81529
-0.305785 0.104683 -0.0749976 -0.456994 0.0781196 0.886033
-0.305785 0.110193 -0.0756075 -0.565116 0.126162 0.815308
-0.305785 0.115702 -0.0767034 -0.468062 0.153991 0.870175
-0.305785 0.121212 -0.0775563 -0.421014 0.158104 0.893169
-0.305785 0.126722 -0.0786546 -0.430496 0.231802 0.872319
-0.305785 0.132231 -0.0804844 -0.3825 0.358458 0.851588
-0.305785 0.137741 -0.0832935 -0.405491 0.400524 0.82168
-0.305785 0.143251 -0.0858571 -0.257562 0.40763 0.876071
-0.305785 0.14876 -0.0884207 -0.433109 0.462753 0.773483
-0.305785 0.15427 -0.0924497 -0.39314 0.459003 0.796716
-0.305785 0.15978 -0.0947678 -0.374934 0.47595 0.795548
-0.305785 0.165289 -0.0990422 -0.271259 0.60021 0.75244
-0.305785 0.170799 -0.103557 -0.326151 0.643992 0.692026
-0.305785 0.176309 -0.109297 -0.328116 0.59888 0.730536
-0.305785 0.181818 -0.112592 -0.301757 0.594476 0.745346
-0.305785 0.187328 -0.118084 -0.395707 0.617481 0.679804
-0.305785 0.192837 -0.122601 -0.321813 0.618987 0.716443
-0.305785 0.198347 -0.127604 -0.397985 0.495866 0.771832
-0.305785 0.203857 -0.129679 -0.1889 0.346139 0.918969
-0.305785 0.209366 -0.131755 0.578006 -0.541024 0.610903
-0.305785 0.214876 -0.119921 0.644882 -0.476326 0.597697
-0.305785 0.220386 -0.122973 -0.38105 0.44806 0.808729
-0.305785 0.225895 -0.126027 -0.41727 0.641593 0.643618
-0.305785 0.231405 -0.133959 -0.391316 0.739685 0.547484
-0.305785 0.236915 -0.140913 -0.398423 0.728377 0.557428
-0.305785 0.242424 -0.148356 -0.474957 0.71904 0.507344
-0.305785 0.247934 -0.156531 -0.631376 0.731907 0.256273
-0.305785 0.253444 -0.179827 -0.550667 0.79099 0.266648
-0.305785 0.258953 -0.189218 -0.38619 0.787305 0.480633
-0.305785 0.264463 -0.197879 -0.374411 0.775762 0.507947
-0.305785 0.269972 -0.206048 -0.313132 0.807539 0.499828
-0.305785 0.275482 -0.21568 -0.351778 0.786455 0.507681
-0.305785 0.280992 -0.223118 -0.439315 0.733829 0.518168
-0.305785 0.286501 -0.231285 -0.305048 0.765198 0.566937
-0.305785 0.292011 -0.237992 -0.27725 0.736768 0.616688
-0.305785 0.29752 -0.244451 -0.314043 0.748845 0.583616
-0.305785 0.303031 -0.252129 -0.370939 0.746107 0.552927
-0.305785 0.30854 -0.259322 -0.419302 0.72061 0.552184
-0.305785 0.314049 -0.266512 -0.333923 0.748173 0.573352
-0.305785 0.319559 -0.273699 -0.404324 0.780448 0.476888
-0.305785 0.32507 -0.284544 -0.293184 0.900666 0.320693
-0.305785 0.330579 -0.304647 -0.565828 0.7824 0.26017
-0.305785 0.336088 -0.317683 -0.359066 0.804729 0.472739
-0.305785 0.341597 -0.323405 -0.13594 0.741105 0.657483
-0.305785 0.347106 -0.330102 -0.192283 0.734066 0.651287
-0.305785 0.352618 -0.335824 -0.111635 0.596848 0.79455
-0.305785 0.358127 -0.33838 0.173246 0.556471 0.812604
-0.305785 0.363636 -0.343371 0.0800574 0.620454 0.780146
-0.305785 0.369145 -0.347145 -0.0270012 0.436815 0.899146
-0.305785 0.374657 -0.348724 0.0739961 0.385771 0.919622
-0.305785 0.380166 -0.351766 0.0708945 0.467115 0.88135
-0.305785 0.385675 -0.354566 0.223514 0.441375 0.869039
-0.305785 0.391184 -0.357362 0.0325226 0.436723 0.899008
-0.305785 0.396693 -0.359918 0.112266 0.418 0.901483
-0.305785 0.402205 -0.362472 -0.085672 0.45115 0.888327
-0.305785 0.407714 -0.365514 0.0875994 0.510141 0.855618
-0.305785 0.413223 -0.369042 0.0294413 0.576856 0.816315
-0.305785 0.418732 -0.373302 0.0105701 0.652545 0.757676
-0.305785 0.424244 -0.378533 0.089815 0.685791 0.722236
-0.305785 0.429753 -0.383765 0.0755663 0.669211 0.73922
-0.305785 0.435262 -0.388508 0.123903 0.66593 0.735653
-0.305785 0.440771 -0.393739 -0.0920885 0.750853 0.654018
-0.305785 0.44628 -0.40116 -0.064067 0.746135 0.662705
-0.305785 0.451792 -0.406146 0.147423 0.704697 0.694024
-0.305785 0.457301 -0.412349 0.136681 0.752996 0.643673
-0.305785 0.46281 -0.419036 0.0769142 0.780499 0.620408
-0.305785 0.468319 -0.426211 0.147351 0.763373 0.628927
-0.305785 0.473831 -0.432412 0.183214 0.802314 0.568089
-0.305785 0.47934 -0.441774 0.189425 0.878942 0.437698
-0.305785 0.484849 -0.45454 0.198524 0.895666 0.397959
-0.305785 0.490358 -0.466575 0.178583 0.916452 0.358084
-0.305785 0.495867 -0.48274 0.228676 0.944033 0.237715
-0.305785 0.501379 -0.510335 0.377905 0.895273 0.235952
-0.305785 0.506888 -0.524552 0.138423 0.931012 0.337721
-0.305785 0.512397 -0.540712 0.448966 0.845746 0.288347
-0.300275 -0.413223 -0.152462 -0.661157 -0.644537 0.383984
-0.300275 -0.407714 -0.143214 -0.577759 -0.679159 0.452701
-0.300275 -0.402205 -0.13593 -0.494104 -0.693344 0.524533
-0.300275 -0.396696 -0.128648 -0.528097 -0.668602 0.523531
-0.300275 -0.391184 -0.121857 -0.63172 -0.531784 0.564035
-0.300275 -0.385675 -0.11826 -0.608241 -0.544464 0.577583
-0.300275 -0.380166 -0.111469 -0.517864 -0.643828 0.563296
-0.300275 -0.374657 -0.105665 -0.565907 -0.59194 0.573896
-0.300275 -0.369145 -0.100103 -0.586851 -0.587272 0.557421
-0.300275 -0.363636 -0.0940538 -0.569956 -0.570364 0.591469
-0.300275 -0.358127 -0.0894769 -0.511008 -0.581852 0.632707
-0.300275 -0.352618 -0.0839207 -0.515814 -0.621232 0.589921
-0.300275 -0.347109 -0.0778736 -0.616961 -0.510572 0.598895
-0.300275 -0.341597 -0.0745265 -0.616968 -0.494548 0.612187
-0.300275 -0.336088 -0.0689728 -0.547469 -0.587484 0.595937
-0.300275 -0.330579 -0.0636645 -0.543201 -0.596025 0.591343
-0.300275 -0.32507 -0.0578653 -0.470535 -0.612146 0.635511
-0.300275 -0.319559 -0.0530505 -0.556262 -0.464302 0.6892
-0.300275 -0.314049 -0.0504422 -0.576969 -0.307525 0.75666
-0.300275 -0.30854 -0.0485703 -0.424658 -0.291079 0.857285
-0.300275 -0.303031 -0.0467009 -0.442931 -0.0646882 0.894219
-0.300275 -0.297522 -0.0477744 -0.263105 -0.00528666 0.964753
-0.300275 -0.292011 -0.0466414 -0.356739 0.0983469 0.929013
-0.300275 -0.286501 -0.0489397 -0.433936 0.209813 0.876172
-0.300275 -0.280992 -0.0492794 -0.410872 0.0154694 0.911562
-0.300275 -0.275483 -0.0491281 -0.453611 -0.160625 0.876605
-0.300275 -0.269972 -0.0472587 -0.580839 -0.44384 0.682372
-0.300275 -0.264463 -0.0419604 -0.627484 -0.539759 0.561181
-0.300275 -0.258954 -0.036662 -0.646461 -0.522378 0.556067
-0.300275 -0.253444 -0.0316091 -0.544154 -0.498636 0.674728
-0.300275 -0.247935 -0.0285174 -0.609857 -0.338218 0.716717
-0.300275 -0.242424 -0.0264075 -0.498064 -0.155743 0.853039
-0.300275 -0.236915 -0.0265066 -0.559152 -0.200481 0.804461
-0.300275 -0.231406 -0.0236628 -0.341528 -0.301034 0.890358
-0.300275 -0.225896 -0.0227802 -0.315251 -0.190166 0.92976
-0.300275 -0.220385 -0.0214091 -0.299434 -0.130168 0.945196
-0.300275 -0.214876 -0.0212628 -0.473883 0.0549679 0.87887
-0.300275 -0.209367 -0.0220984 -0.577893 -0.128768 0.80589
-0.300275 -0.203857 -0.0195025 -0.502615 -0.243191 0.8296
-0.300275 -0.198348 -0.0188678 -0.603305 -0.0912162 0.792277
-0.300275 -0.192838 -0.0182331 -0.605493 0.0322914 0.795195
-0.300275 -0.187328 -0.0193141 -0.637492 0.0313198 0.76982
-0.300275 -0.181818 -0.0186818 -0.608996 -0.158417 0.777192
-0.300275 -0.176309 -0.0170678 -0.596188 -0.176962 0.783099
-0.300275 -0.170799 -0.0161926 -0.684154 -0.0349831 0.728498
-0.300275 -0.165289 -0.0165397 -0.645547 0.0817641 0.759331
-0.300275 -0.15978 -0.0173777 -0.554692 0.107243 0.825116
-0.300275 -0.15427 -0.0179727 -0.568772 -0.0755586 0.819018
-0.300275 -0.148761 -0.0163612 -0.58088 -0.0747192 0.810552
-0.300275 -0.143251 -0.0169562 -0.570362 -0.00261599 0.821389
-0.300275 -0.137741 -0.0163265 -0.603377 0.0856344 0.792845
-0.300275 -0.132232 -0.0181463 -0.568089 0.0884332 0.818202
-0.300275 -0.126722 -0.0175165 -0.61581 0.0500769 0.786302
-0.300275 -0.121212 -0.0188479 -0.494938 0.186145 0.848756
-0.300275 -0.115703 -0.0199339 -0.548738 0.179128 0.816578
-0.300275 -0.110193 -0.0212653 -0.590882 0.104426 0.799971
-0.300275 -0.104683 -0.0213719 -0.647444 0.0148574 0.761968
-0.300275 -0.0991739 -0.021481 -0.500499 0.11216 0.858441
-0.300275 -0.093664 -0.0228124 -0.598125 0.155178 0.786235
-0.300275 -0.0881545 -0.0236554 -0.638579 0.165085 0.751641
-0.300275 -0.0826449 -0.0252323 -0.626654 0.183227 0.757452
-0.300275 -0.0771353 -0.0263207 -0.564327 0.14255 0.813151
-0.300275 -0.0716254 -0.0271637 -0.635999 0.0665136 0.768818
-0.300275 -0.0661158 -0.0272727 -0.564284 0.142641 0.813165
-0.300275 -0.0606062 -0.0290975 -0.635144 0.0835812 0.767858
-0.300275 -0.0550967 -0.0284728 -0.645945 0.0659313 0.760532
-0.300275 -0.0495871 -0.0300521 -0.605426 0.187358 0.773535
-0.300275 -0.0440772 -0.031143 -0.571292 0.273394 0.773874
-0.300275 -0.0385676 -0.0339447 -0.567751 0.346693 0.746634
-0.300275 -0.033058 -0.0362579 -0.565538 0.125147 0.815172
-0.300275 -0.0275485 -0.035638 -0.657508 0.162005 0.735825
-0.300275 -0.0220386 -0.0386852 -0.493992 0.420902 0.760798
-0.300275 -0.016529 -0.0417323 -0.535702 0.341533 0.772256
-0.300275 -0.0110194 -0.0435595 -0.644204 0.195709 0.739391
-0.300275 -0.00550984 -0.0446505 -0.47428 0.242804 0.846229
-0.300275 -2.47934e-007 -0.0467207 -0.522369 0.39998 0.753092
-0.300275 0.00550959 -0.0505017 -0.404998 0.469096 0.784809
-0.300275 0.0110192 -0.0533058 -0.398484 0.2348 0.886611
-0.300275 0.0165288 -0.0534199 -0.352221 0.346095 0.869574
-0.300275 0.0220384 -0.0576918 -0.426753 0.36591 0.827038
-0.300275 0.0275481 -0.0582967 -0.526722 0.129364 0.840136
-0.300275 0.0330577 -0.0593901 -0.552296 0.24637 0.796411
-0.300275 0.0385674 -0.0617058 -0.547587 0.3386 0.765179
-0.300275 0.044077 -0.0642645 -0.639577 0.227233 0.734375
-0.300275 0.0495867 -0.0651149 -0.587793 0.140499 0.796718
-0.300275 0.0550963 -0.0662083 -0.66636 0.160738 0.728098
-0.300275 0.060606 -0.0675472 -0.762959 0.028005 0.64584
-0.300275 0.0661156 -0.0666868 -0.762942 0.0280413 0.645858
-0.300275 0.0716252 -0.0680257 -0.740434 0.102554 0.664259
-0.300275 0.077135 -0.0683877 -0.65656 0.0161175 0.754102
-0.300275 0.0826446 -0.0682612 -0.473396 0.0383823 0.880013
-0.300275 0.0881542 -0.0688687 -0.461288 0.227623 0.857555
-0.300275 0.0936638 -0.0711868 -0.449744 0.19285 0.872089
-0.300275 0.0991734 -0.0713058 -0.50169 0.075948 0.861707
-0.300275 0.104683 -0.0721563 -0.438337 0.137423 0.888243
-0.300275 0.110193 -0.0730092 -0.423284 0.119091 0.898136
-0.300275 0.115702 -0.0736191 -0.412548 0.251963 0.875396
-0.300275 0.121212 -0.0761802 -0.384737 0.199505 0.901207
-0.300275 0.126722 -0.0760587 -0.351279 0.182947 0.918223
-0.300275 0.132231 -0.0783769 -0.371464 0.421553 0.827229
-0.300275 0.137741 -0.081672 -0.322619 0.429772 0.843334
-0.300275 0.143251 -0.0839926 -0.454497 0.280912 0.845294
-0.300275 0.14876 -0.085334 -0.35187 0.346762 0.86945
-0.300275 0.15427 -0.088386 -0.412124 0.492562 0.766509
-0.300275 0.15978 -0.092415 -0.253048 0.613379 0.748153
-0.300275 0.165289 -0.0974207 -0.258221 0.592046 0.763416
-0.300275 0.170799 -0.100961 -0.347116 0.530973 0.773032
-0.300275 0.176309 -0.10499 -0.356507 0.628207 0.691563
-0.300275 0.181818 -0.110973 -0.197259 0.659163 0.725667
-0.300275 0.187328 -0.114999 -0.280914 0.618089 0.734203
-0.300275 0.192837 -0.120248 -0.265845 0.620834 0.73749
-0.300275 0.198347 -0.124277 -0.201529 0.640332 0.741189
-0.300275 0.203857 -0.129769 -0.159776 0.463437 0.871606
-0.300275 0.209366 -0.130136 -0.287388 0.302105 0.908923
-0.300275 0.214876 -0.133431 0.569542 -0.559682 0.601979
-0.300275 0.220386 -0.119891 0.582675 -0.546162 0.601828
-0.300275 0.225895 -0.123432 -0.15192 0.655518 0.739741
-0.300275 0.231405 -0.129655 -0.413558 0.669599 0.616934
-0.300275 0.236915 -0.135389 -0.483109 0.676731 0.555555
-0.300275 0.242424 -0.143078 -0.468686 0.709994 0.525588
-0.300275 0.247934 -0.150275 -0.405014 0.771463 0.490723
-0.300275 0.253444 -0.160401 -0.573352 0.779194 0.253229
-0.300275 0.258953 -0.184183 -0.63664 0.726561 0.258453
-0.300275 0.264463 -0.191378 -0.377403 0.781283 0.497156
-0.300275 0.269972 -0.201499 -0.408552 0.801646 0.436406
-0.300275 0.275482 -0.211619 -0.430186 0.755204 0.494577
-0.300275 0.280992 -0.218326 -0.331833 0.792525 0.511656
-0.300275 0.286501 -0.228687 -0.374289 0.785398 0.493009
-0.300275 0.292011 -0.23588 -0.299118 0.737208 0.605849
-0.300275 0.29752 -0.242098 -0.281219 0.751899 0.596291
-0.300275 0.303031 -0.249776 -0.29917 0.737149 0.605896
-0.300275 0.30854 -0.255504 -0.317092 0.743039 0.589361
-0.300275 0.314049 -0.263668 -0.337049 0.742525 0.57884
-0.300275 0.319559 -0.269638 -0.296264 0.795317 0.528866
-0.300275 0.32507 -0.280237 -0.401911 0.797138 0.450597
-0.300275 0.330579 -0.289133 -0.567825 0.774754 0.278083
-0.300275 0.336088 -0.310939 -0.582508 0.770138 0.259944
-0.300275 0.341597 -0.321779 -0.296477 0.795142 0.529009
-0.300275 0.347106 -0.327501 -0.106073 0.750118 0.652742
-0.300275 0.352618 -0.334443 -0.135949 0.741046 0.657547
-0.300275 0.358127 -0.33992 0.0775815 0.65078 0.755292
-0.300275 0.363636 -0.343937 -0.00705955 0.436959 0.899454
-0.300275 0.369145 -0.345273 0.0934762 0.40218 0.910776
-0.300275 0.374657 -0.348804 0.0124408 0.483289 0.875372
-0.300275 0.380166 -0.351357 0.119015 0.573063 0.810824
-0.300275 0.385675 -0.356591 0.160305 0.519129 0.839528
-0.300275 0.391184 -0.358171 0.0523999 0.43632 0.898264
-0.300275 0.396693 -0.361944 0.19123 0.396477 0.897907
-0.300275 0.402205 -0.363037 0.261592 0.421697 0.868182
-0.300275 0.407714 -0.367295 0.186579 0.578604 0.793981
-0.300275 0.413223 -0.371068 0.197819 0.501948 0.841972
-0.300275 0.418732 -0.373865 0.220021 0.574471 0.788399
-0.300275 0.424244 -0.379096 0.0270158 0.66175 0.749238
-0.300275 0.429753 -0.383596 0.0567888 0.70369 0.708234
-0.300275 0.435262 -0.390045 0.0102969 0.67105 0.741341
-0.300275 0.440771 -0.393573 0.159053 0.64414 0.748188
-0.300275 0.44628 -0.399531 -0.0752467 0.769711 0.633943
-0.300275 0.451792 -0.406952 0.00828218 0.798041 0.602546
-0.300275 0.457301 -0.414127 0.0675913 0.745884 0.662638
-0.300275 0.46281 -0.419356 0.0668226 0.752237 0.655495
-0.300275 0.468319 -0.426771 0.0966811 0.812319 0.575144
-0.300275 0.473831 -0.434919 0.188083 0.837577 0.512922
-0.300275 0.47934 -0.444766 0.195417 0.881615 0.429613
-0.300275 0.484849 -0.45753 0.18859 0.898881 0.395534
-0.300275 0.490358 -0.469808 0.204787 0.923461 0.324472
-0.300275 0.495867 -0.488891 0.257476 0.941437 0.217719
-0.300275 0.501379 -0.517456 0.23845 0.933934 0.266289
-0.300275 0.506888 -0.527539 0.289408 0.839979 0.458997
-0.294766 -0.413223 -0.142976 -0.621404 -0.632279 0.462688
-0.294766 -0.407714 -0.135446 -0.557318 -0.630249 0.540539
-0.294766 -0.402205 -0.130126 -0.557341 -0.608366 0.565033
-0.294766 -0.396696 -0.12358 -0.527449 -0.64995 0.54714
-0.294766 -0.391184 -0.117037 -0.526923 -0.639706 0.55958
-0.294766 -0.385675 -0.110985 -0.565877 -0.592017 0.573846
-0.294766 -0.380166 -0.10567 -0.547471 -0.587829 0.595594
-0.294766 -0.374657 -0.100108 -0.52622 -0.628729 0.572531
-0.294766 -0.369145 -0.0935678 -0.570141 -0.583495 0.578336
-0.294766 -0.363636 -0.088991 -0.535573 -0.564036 0.62851
-0.294766 -0.358127 -0.0836778 -0.591422 -0.566249 0.574092
-0.294766 -0.352618 -0.0781216 -0.543174 -0.596194 0.591198
-0.294766 -0.347109 -0.0725653 -0.518635 -0.600304 0.608812
-0.294766 -0.341597 -0.0672571 -0.612754 -0.504731 0.608095
-0.294766 -0.336088 -0.0634191 -0.580278 -0.494055 0.647447
-0.294766 -0.330579 -0.0588472 -0.589708 -0.489873 0.642081
-0.294766 -0.32507 -0.0550141 -0.553849 -0.539922 0.633826
-0.294766 -0.319559 -0.0494629 -0.516996 -0.546477 0.658846
-0.294766 -0.314049 -0.0458728 -0.52215 -0.290196 0.801964
-0.294766 -0.30854 -0.0454736 -0.531822 -0.0424001 0.845794
-0.294766 -0.303031 -0.0453199 -0.474902 0.0147095 0.879916
-0.294766 -0.297522 -0.0456595 -0.339047 0.0783341 0.937502
-0.294766 -0.292011 -0.0462422 -0.320825 0.0580133 0.94536
-0.294766 -0.286501 -0.0463339 -0.458269 0.0741202 0.885717
-0.294766 -0.280992 -0.0471645 -0.473945 -0.0632519 0.87828
-0.294766 -0.275483 -0.0455405 -0.509721 -0.40834 0.75726
-0.294766 -0.269972 -0.0412215 -0.643325 -0.51755 0.564159
-0.294766 -0.264463 -0.0354323 -0.608175 -0.543524 0.578537
-0.294766 -0.258954 -0.0308703 -0.53466 -0.43775 0.722851
-0.294766 -0.253444 -0.0287579 -0.518399 -0.418365 0.74581
-0.294766 -0.247935 -0.0246868 -0.420565 -0.401895 0.813392
-0.294766 -0.242424 -0.0233132 -0.381782 -0.242179 0.89196
-0.294766 -0.236915 -0.0216967 -0.441071 -0.103155 0.891524
-0.294766 -0.231406 -0.0220389 -0.489101 -0.0425875 0.871187
-0.294766 -0.225896 -0.0211587 -0.45328 -0.159832 0.876921
-0.294766 -0.220385 -0.0200306 -0.448328 -0.215896 0.867405
-0.294766 -0.214876 -0.0184141 -0.497779 -0.27754 0.821698
-0.294766 -0.209367 -0.0163091 -0.614308 -0.090359 0.783876
-0.294766 -0.203857 -0.0171446 -0.542578 -0.0961122 0.834489
-0.294766 -0.198348 -0.0150397 -0.494584 -0.191823 0.847697
-0.294766 -0.192838 -0.0146504 -0.555437 -0.0950084 0.826113
-0.294766 -0.187328 -0.0137727 -0.590755 -0.10964 0.799367
-0.294766 -0.181818 -0.0131405 -0.647403 0.0310662 0.761515
-0.294766 -0.176309 -0.0142215 -0.589475 -0.127014 0.797738
-0.294766 -0.170799 -0.0113851 -0.562572 -0.164949 0.810126
-0.294766 -0.165289 -0.0119777 -0.644498 0.0985319 0.758231
-0.294766 -0.15978 -0.0128182 -0.646261 0.0650493 0.760339
-0.294766 -0.15427 -0.0129223 -0.709048 -0.0023247 0.705156
-0.294766 -0.148761 -0.012781 -0.569531 0.0520535 0.82032
-0.294766 -0.143251 -0.0136215 -0.594097 0.0153414 0.804247
-0.294766 -0.137741 -0.0129917 -0.557748 -0.00256018 0.830006
-0.294766 -0.132232 -0.0135868 -0.675556 0.0141668 0.737172
-0.294766 -0.126722 -0.0132025 -0.576561 0.140717 0.804845
-0.294766 -0.121212 -0.0155132 -0.646542 0.179134 0.741548
-0.294766 -0.115703 -0.0158653 -0.636087 0.0661677 0.768775
-0.294766 -0.110193 -0.0164603 -0.681234 0.0947821 0.725904
-0.294766 -0.104683 -0.0173033 -0.586698 0.15674 0.794492
-0.294766 -0.0991739 -0.0186347 -0.653935 0.0980397 0.750171
-0.294766 -0.093664 -0.0187438 -0.591754 0.0869758 0.801413
-0.294766 -0.0881545 -0.0198322 -0.635176 0.0833845 0.767853
-0.294766 -0.0826449 -0.0199413 -0.678706 0.1268 0.723381
-0.294766 -0.0771353 -0.0217637 -0.621264 0.13534 0.771825
-0.294766 -0.0716254 -0.0218727 -0.613091 0.102597 0.783322
-0.294766 -0.0661158 -0.0232066 -0.590644 0.104845 0.800092
-0.294766 -0.0606062 -0.0233157 -0.715121 0.0603621 0.69639
-0.294766 -0.0550967 -0.0241612 -0.594317 0.189305 0.781633
-0.294766 -0.0495871 -0.025986 -0.605352 0.187395 0.773584
-0.294766 -0.0440772 -0.0268314 -0.579876 0.286403 0.762704
-0.294766 -0.0385676 -0.030124 -0.638771 0.284363 0.714919
-0.294766 -0.033058 -0.0312124 -0.687055 0.125778 0.715636
-0.294766 -0.0275485 -0.0320604 -0.500313 0.25563 0.827249
-0.294766 -0.0220386 -0.034619 -0.522047 0.284237 0.804162
-0.294766 -0.016529 -0.0359554 -0.596224 0.252469 0.762087
-0.294766 -0.0110194 -0.0382686 -0.58245 0.405451 0.70453
-0.294766 -0.00550984 -0.0422951 -0.564845 0.399513 0.722039
-0.294766 -2.47934e-007 -0.0443653 -0.556154 0.350132 0.753724
-0.294766 0.00550959 -0.0474149 -0.581826 0.329027 0.743787
-0.294766 0.0110192 -0.0492397 -0.668313 0.261687 0.696332
-0.294766 0.0165288 -0.0515554 -0.593503 0.268342 0.75878
-0.294766 0.0220384 -0.0531372 -0.659592 0.264448 0.703567
-0.294766 0.0275481 -0.0556984 -0.626203 0.183938 0.757652
-0.294766 0.0330577 -0.0558124 -0.604219 0.0519313 0.795124
-0.294766 0.0385674 -0.0564174 -0.69508 0.124827 0.708012
-0.294766 0.044077 -0.0577562 -0.707793 0.248631 0.66122
-0.294766 0.0495867 -0.0605604 -0.658157 0.222603 0.71922
-0.294766 0.0550963 -0.0611653 -0.730354 -0.0309615 0.682367
-0.294766 0.060606 -0.060062 -0.700412 0.0151529 0.713578
-0.294766 0.0661156 -0.0614009 -0.575894 0.142151 0.805071
-0.294766 0.0716252 -0.0620058 -0.613618 0.202497 0.763196
-0.294766 0.077135 -0.064324 -0.489567 0.322747 0.810036
-0.294766 0.0826446 -0.0663967 -0.43407 0.194453 0.879643
-0.294766 0.0881542 -0.0667612 -0.456095 0.0975037 0.884574
-0.294766 0.0936638 -0.0676116 -0.5139 0.112647 0.850422
-0.294766 0.0991734 -0.0682191 -0.511344 0.149664 0.846244
-0.294766 0.104683 -0.0695604 -0.46647 0.172706 0.867513
-0.294766 0.110193 -0.0704133 -0.511298 0.149752 0.846255
-0.294766 0.115702 -0.0715116 -0.464798 0.19135 0.864493
-0.294766 0.121212 -0.072853 -0.504222 0.221774 0.834612
-0.294766 0.126722 -0.0744397 -0.462979 0.209783 0.861186
-0.294766 0.132231 -0.0755356 -0.458489 0.344788 0.81909
-0.294766 0.137741 -0.0790761 -0.475495 0.325883 0.817132
-0.294766 0.143251 -0.0799315 -0.455551 0.360662 0.813877
-0.294766 0.14876 -0.0839604 -0.343877 0.482104 0.805807
-0.294766 0.15427 -0.086524 -0.368419 0.502574 0.782104
-0.294766 0.15978 -0.0910414 -0.345568 0.585175 0.733589
-0.294766 0.165289 -0.0953133 -0.33184 0.534102 0.777571
-0.294766 0.170799 -0.0986108 -0.322639 0.56952 0.75601
-0.294766 0.176309 -0.103614 -0.203738 0.691229 0.693321
-0.294766 0.181818 -0.109597 -0.284036 0.653146 0.701943
-0.294766 0.187328 -0.113869 -0.253047 0.6133 0.748218
-0.294766 0.192837 -0.118629 -0.292298 0.667501 0.684839
-0.294766 0.198347 -0.124609 -0.283694 0.607857 0.741638
-0.294766 0.203857 -0.127661 -0.454412 0.280963 0.845322
-0.294766 0.209366 -0.128271 -0.293562 0.226438 0.928734
-0.294766 0.214876 -0.130346 -0.435055 0.394509 0.809376
-0.294766 0.220386 -0.133641 0.639205 -0.39443 0.660183
-0.294766 0.225895 -0.123764 0.142538 -0.534533 0.833041
-0.294766 0.231405 -0.12657 -0.300639 0.539964 0.786165
-0.294766 0.236915 -0.131331 -0.329633 0.694308 0.639749
-0.294766 0.242424 -0.138531 -0.36413 0.768645 0.525922
-0.294766 0.247934 -0.147436 -0.298508 0.791403 0.533455
-0.294766 0.253444 -0.154877 -0.454037 0.71185 0.535836
-0.294766 0.258953 -0.162075 -0.569638 0.783211 0.249185
-0.294766 0.264463 -0.189513 -0.564407 0.78452 0.256853
-0.294766 0.269972 -0.195732 -0.387278 0.767896 0.510247
-0.294766 0.275482 -0.206095 -0.424432 0.795237 0.432961
-0.294766 0.280992 -0.215973 -0.354818 0.782114 0.512252
-0.294766 0.286501 -0.22292 -0.42474 0.753967 0.501129
-0.294766 0.292011 -0.23255 -0.371214 0.769758 0.519301
-0.294766 0.29752 -0.239254 -0.31393 0.748864 0.583653
-0.294766 0.303031 -0.246689 -0.381146 0.729178 0.568355
-0.294766 0.30854 -0.253391 -0.402659 0.707106 0.581263
-0.294766 0.314049 -0.260095 -0.38119 0.729118 0.568402
-0.294766 0.319559 -0.267526 -0.374293 0.740549 0.558115
-0.294766 0.32507 -0.274716 -0.516591 0.683765 0.515364
-0.294766 0.330579 -0.282147 -0.467635 0.756946 0.456454
-0.294766 0.336088 -0.292989 -0.553633 0.794492 0.249545
-0.294766 0.341597 -0.317229 -0.535658 0.806121 0.251474
-0.294766 0.347106 -0.328312 -0.151006 0.819224 0.553235
-0.294766 0.352618 -0.333546 -0.158422 0.703832 0.692476
-0.294766 0.358127 -0.339511 -0.0223732 0.662025 0.749148
-0.294766 0.363636 -0.343285 -0.0750845 0.620655 0.780481
-0.294766 0.369145 -0.348275 0.223695 0.441345 0.869008
-0.294766 0.374657 -0.34888 0.132078 0.416943 0.899285
-0.294766 0.380166 -0.353383 0.136667 0.571732 0.808977
-0.294766 0.385675 -0.356668 0.114234 0.384262 0.91613
-0.294766 0.391184 -0.358007 0.0126563 0.45274 0.891553
-0.294766 0.396693 -0.362264 -0.0245107 0.576932 0.816425
-0.294766 0.402205 -0.365792 0.147523 0.46309 0.873948
-0.294766 0.407714 -0.368103 0.0124774 0.468162 0.883555
-0.294766 0.413223 -0.371631 0.0816546 0.598374 0.797045
-0.294766 0.418732 -0.376376 0.121312 0.548131 0.827548
-0.294766 0.424244 -0.37893 0.133649 0.594947 0.792576
-0.294766 0.429753 -0.384647 0.157474 0.653688 0.740198
-0.294766 0.435262 -0.388661 0.0249865 0.719815 0.693716
-0.294766 0.440771 -0.396082 0.0868943 0.709821 0.699002
-0.294766 0.44628 -0.399851 0.0586374 0.678683 0.732087
-0.294766 0.451792 -0.406297 -0.0329623 0.777018 0.628615
-0.294766 0.457301 -0.413472 0.00854814 0.782789 0.622229
-0.294766 0.46281 -0.420159 0.0481079 0.797076 0.601959
-0.294766 0.468319 -0.428063 0.118102 0.822532 0.556322
-0.294766 0.473831 -0.436451 0.139836 0.853346 0.502242
-0.294766 0.47934 -0.446785 0.172716 0.890703 0.420498
-0.294766 0.484849 -0.459794 0.218293 0.902289 0.371783
-0.294766 0.490358 -0.473529 0.247916 0.926312 0.283698
-0.294766 0.495867 -0.495771 0.394171 0.894447 0.211174
-0.294766 0.501379 -0.520203 0.157857 0.943599 0.291035
-0.294766 0.506888 -0.531499 0.3005 0.857272 0.418072
-0.289257 -0.418732 -0.144702 -0.528021 -0.66872 0.523458
-0.289257 -0.413223 -0.137663 -0.596738 -0.609116 0.52238
-0.289257 -0.407714 -0.131851 -0.517805 -0.644009 0.563144
-0.289257 -0.402205 -0.12506 -0.51498 -0.670362 0.534238
-0.289257 -0.396696 -0.118024 -0.519094 -0.663697 0.53856
-0.289257 -0.391184 -0.111481 -0.512838 -0.596109 0.61778
-0.289257 -0.385675 -0.107393 -0.560235 -0.560901 0.60953
-0.289257 -0.380166 -0.101341 -0.52107 -0.625192 0.581051
-0.289257 -0.374657 -0.0955364 -0.526171 -0.62873 0.572576
-0.289257 -0.369145 -0.0892414 -0.498374 -0.608877 0.617165
-0.289257 -0.363636 -0.0846645 -0.524175 -0.604775 0.599573
-0.289257 -0.358127 -0.0781265 -0.49836 -0.608785 0.617267
-0.289257 -0.352618 -0.0737976 -0.519271 -0.562681 0.643233
-0.289257 -0.347109 -0.0684868 -0.440355 -0.61542 0.653717
-0.289257 -0.341597 -0.063424 -0.431814 -0.585035 0.686491
-0.289257 -0.336088 -0.0590951 -0.482705 -0.584637 0.65207
-0.289257 -0.330579 -0.0535438 -0.455281 -0.624951 0.634157
-0.289257 -0.32507 -0.0482356 -0.604129 -0.508767 0.613339
-0.289257 -0.319559 -0.0444025 -0.497276 -0.356655 0.790894
-0.289257 -0.314049 -0.043267 -0.507034 -0.209448 0.836091
-0.289257 -0.30854 -0.041643 -0.450363 -0.198607 0.870476
-0.289257 -0.303031 -0.0407529 -0.525113 0.162719 0.835332
-0.289257 -0.297522 -0.0437876 -0.482903 0.167488 0.859507
-0.289257 -0.292011 -0.0429 -0.33962 -0.0468646 0.939394
-0.289257 -0.286501 -0.0432397 -0.375945 0.0363002 0.925931
-0.289257 -0.280992 -0.0433314 -0.528508 -0.116665 0.840874
-0.289257 -0.275483 -0.04171 -0.594723 -0.495988 0.632693
-0.289257 -0.269972 -0.0346934 -0.529495 -0.608232 0.591346
-0.289257 -0.264463 -0.0303769 -0.553374 -0.407613 0.726381
-0.289257 -0.258954 -0.0285099 -0.514716 -0.431964 0.740591
-0.289257 -0.253444 -0.023948 -0.560484 -0.379997 0.735839
-0.289257 -0.247935 -0.0228199 -0.51043 -0.172565 0.842427
-0.289257 -0.242424 -0.0216918 -0.484804 -0.138402 0.863603
-0.289257 -0.236915 -0.0210546 -0.449709 -0.319169 0.834202
-0.289257 -0.231406 -0.0174769 -0.466969 -0.299716 0.831932
-0.289257 -0.225896 -0.0170851 -0.54029 -0.132925 0.830914
-0.289257 -0.220385 -0.0157141 -0.607225 -0.175596 0.774883
-0.289257 -0.214876 -0.0145884 -0.510326 -0.172119 0.842581
-0.289257 -0.209367 -0.0134628 -0.523963 -0.170395 0.834523
-0.289257 -0.203857 -0.0123372 -0.59268 -0.0745093 0.801984
-0.289257 -0.198348 -0.0124389 -0.602105 -0.108596 0.790997
-0.289257 -0.192838 -0.0108248 -0.624863 -0.0891786 0.775625
-0.289257 -0.187328 -0.0111719 -0.65386 -0.102783 0.749602
-0.289257 -0.181818 -0.0093124 -0.574656 -0.163381 0.801921
-0.289257 -0.176309 -0.00892563 -0.674815 -0.0517158 0.736173
-0.289257 -0.170799 -0.00853885 -0.611817 -0.124277 0.781175
-0.289257 -0.165289 -0.00717273 -0.637152 -0.0368455 0.769857
-0.289257 -0.15978 -0.00801323 -0.666481 -0.0190376 0.745279
-0.289257 -0.15427 -0.00689257 -0.700351 0.0451849 0.712367
-0.289257 -0.148761 -0.00870992 -0.621474 0.134777 0.771755
-0.289257 -0.143251 -0.00881654 -0.647441 0.0145643 0.761976
-0.289257 -0.137741 -0.00892067 -0.691941 -0.050204 0.720206
-0.289257 -0.132232 -0.00804794 -0.646708 0.0484886 0.761195
-0.289257 -0.126722 -0.00962232 -0.664327 0.0804191 0.743103
-0.289257 -0.121212 -0.0092405 -0.729161 0.0736655 0.680365
-0.289257 -0.115703 -0.0108174 -0.680065 0.110727 0.724742
-0.289257 -0.110193 -0.010924 -0.68421 0.156345 0.712329
-0.289257 -0.104683 -0.0132347 -0.699587 0.0614 0.711905
-0.289257 -0.0991739 -0.0118736 -0.681134 0.0949034 0.725982
-0.289257 -0.093664 -0.0146752 -0.626557 0.183227 0.757532
-0.289257 -0.0881545 -0.0145389 -0.675353 0.0145841 0.73735
-0.289257 -0.0826449 -0.0148934 -0.6245 0.199487 0.755119
-0.289257 -0.0771353 -0.0174496 -0.690202 0.227302 0.68699
-0.289257 -0.0716254 -0.0185405 -0.6711 0.112284 0.732814
-0.289257 -0.0661158 -0.019138 -0.626028 -0.0535254 0.777961
-0.289257 -0.0606062 -0.0177818 -0.655515 0.0652416 0.752358
-0.289257 -0.0550967 -0.0200951 -0.549939 0.262491 0.792884
-0.289257 -0.0495871 -0.0214289 -0.60528 0.187431 0.773632
-0.289257 -0.0440772 -0.0227653 -0.57104 0.193331 0.797832
-0.289257 -0.0385676 -0.0240992 -0.671644 0.189492 0.716231
-0.289257 -0.033058 -0.025681 -0.581871 0.328922 0.743798
-0.289257 -0.0275485 -0.0289736 -0.545972 0.392944 0.739939
-0.289257 -0.0220386 -0.0315323 -0.590805 0.283737 0.755277
-0.289257 -0.016529 -0.0331116 -0.603139 0.204115 0.771078
-0.289257 -0.0110194 -0.034448 -0.603122 0.204148 0.771082
-0.289257 -0.00550984 -0.0360298 -0.641417 0.269865 0.718162
-0.289257 -2.47934e-007 -0.0385885 -0.655136 0.354405 0.667228
-0.289257 0.00550959 -0.0418835 -0.668268 0.261716 0.696364
-0.289257 0.0110192 -0.0427314 -0.71912 0.177936 0.671718
-0.289257 0.0165288 -0.0448017 -0.679255 0.284347 0.676579
-0.289257 0.0220384 -0.0473628 -0.719426 0.256905 0.645311
-0.289257 0.0275481 -0.0491876 -0.758369 0.205144 0.618702
-0.289257 0.0330577 -0.0510149 -0.7337 0.103499 0.671544
-0.289257 0.0385674 -0.050886 -0.713084 0.0917336 0.695051
-0.289257 0.044077 -0.0524703 -0.692622 0.253893 0.675139
-0.289257 0.0495867 -0.0550315 -0.710703 0.122249 0.692789
-0.289257 0.0550963 -0.0544141 -0.719404 0.105931 0.686467
-0.289257 0.060606 -0.0567323 -0.553415 0.308235 0.773772
-0.289257 0.0661156 -0.058805 -0.479728 0.189303 0.856753
-0.289257 0.0716252 -0.059167 -0.556496 0.213088 0.80306
-0.289257 0.077135 -0.0617282 -0.537028 0.265742 0.800613
-0.289257 0.0826446 -0.062824 -0.540821 0.110389 0.833863
-0.289257 0.0881542 -0.063186 -0.52633 0.129916 0.840297
-0.289257 0.0936638 -0.0645273 -0.485249 0.114846 0.866801
-0.289257 0.0991734 -0.0646463 -0.453891 0.136238 0.88058
-0.289257 0.104683 -0.0662331 -0.422049 0.138664 0.895906
-0.289257 0.110193 -0.0663521 -0.52743 0.111723 0.842221
-0.289257 0.115702 -0.0676934 -0.473692 0.243637 0.84632
-0.289257 0.121212 -0.0695232 -0.367348 0.201072 0.908089
-0.289257 0.126722 -0.0701331 -0.432112 0.213462 0.876192
-0.289257 0.132231 -0.0722083 -0.452483 0.376206 0.808534
-0.289257 0.137741 -0.0752604 -0.40226 0.415711 0.815703
-0.289257 0.143251 -0.077824 -0.374123 0.406368 0.833605
-0.289257 0.14876 -0.0806331 -0.358075 0.409144 0.839276
-0.289257 0.15427 -0.0831968 -0.460113 0.455841 0.761909
-0.289257 0.15978 -0.0872257 -0.428088 0.590903 0.683793
-0.289257 0.165289 -0.0927199 -0.435759 0.570637 0.696051
-0.289257 0.170799 -0.0962579 -0.383788 0.585428 0.71413
-0.289257 0.176309 -0.101752 -0.379083 0.63037 0.677444
-0.289257 0.181818 -0.106512 -0.402887 0.598375 0.692553
-0.289257 0.187328 -0.111273 -0.383817 0.585378 0.714155
-0.289257 0.192837 -0.115545 -0.331129 0.588326 0.737716
-0.289257 0.198347 -0.120062 -0.36652 0.559756 0.743193
-0.289257 0.203857 -0.123846 -0.343882 0.482016 0.805857
-0.289257 0.209366 -0.126652 -0.268597 0.303854 0.914072
-0.289257 0.214876 -0.127508 -0.285429 0.320287 0.903298
-0.289257 0.220386 -0.13056 -0.49553 -0.169427 0.851906
-0.289257 0.225895 -0.125316 0.537327 -0.355284 0.764887
-0.289257 0.231405 -0.12544 0.0150176 0.370553 0.92869
-0.289257 0.236915 -0.129712 -0.134311 0.666205 0.733574
-0.289257 0.242424 -0.135449 -0.275151 0.763447 0.584329
-0.289257 0.247934 -0.144109 -0.328738 0.771643 0.544517
-0.289257 0.253444 -0.151064 -0.440709 0.721426 0.534154
-0.289257 0.258953 -0.158993 -0.364148 0.768576 0.52601
-0.289257 0.264463 -0.167165 -0.613455 0.751558 0.242555
-0.289257 0.269972 -0.193136 -0.59061 0.766892 0.251109
-0.289257 0.275482 -0.200817 -0.383448 0.782255 0.490963
-0.289257 0.280992 -0.210692 -0.455932 0.764982 0.454893
-0.289257 0.286501 -0.219347 -0.277412 0.81047 0.515927
-0.289257 0.292011 -0.228003 -0.430159 0.755148 0.494687
-0.289257 0.29752 -0.23617 -0.344874 0.745094 0.570874
-0.289257 0.303031 -0.242385 -0.428957 0.657587 0.619334
-0.289257 0.30854 -0.24787 -0.384621 0.723196 0.573632
-0.289257 0.314049 -0.256277 -0.366898 0.738372 0.565856
-0.289257 0.319559 -0.262247 -0.431461 0.686287 0.585535
-0.289257 0.32507 -0.269192 -0.4012 0.748079 0.528598
-0.289257 0.330579 -0.277842 -0.396215 0.774392 0.493285
-0.289257 0.336088 -0.286493 -0.389386 0.810979 0.436683
-0.289257 0.341597 -0.298307 -0.558443 0.796725 0.231022
-0.289257 0.347106 -0.324494 -0.361727 0.885897 0.290413
-0.289257 0.352618 -0.331922 -0.220489 0.787851 0.575044
-0.289257 0.358127 -0.33959 -0.144982 0.697597 0.701668
-0.289257 0.363636 -0.342875 0.0810499 0.609612 0.788546
-0.289257 0.369145 -0.348109 -0.0971239 0.562262 0.821236
-0.289257 0.374657 -0.35042 0.208785 0.411345 0.887245
-0.289257 0.380166 -0.353219 0.0844278 0.562879 0.822216
-0.289257 0.385675 -0.357965 -0.0471414 0.420143 0.906232
-0.289257 0.391184 -0.358327 0.217917 0.306701 0.926524
-0.289257 0.396693 -0.361612 0.125083 0.508048 0.852198
-0.289257 0.402205 -0.364897 0.0320453 0.467962 0.883167
-0.289257 0.407714 -0.367451 0.157166 0.545363 0.823334
-0.289257 0.413223 -0.372196 0.169605 0.580356 0.796505
-0.289257 0.418732 -0.375481 -0.0751928 0.620464 0.780622
-0.289257 0.424244 -0.380956 0.183239 0.676857 0.712943
-0.289257 0.429753 -0.385942 0.110371 0.648479 0.753189
-0.289257 0.435262 -0.390442 0.2112 0.618304 0.75703
-0.289257 0.440771 -0.394942 -0.0550611 0.669997 0.740319
-0.289257 0.44628 -0.400414 0.204438 0.704765 0.679347
-0.289257 0.451792 -0.406374 0.0497739 0.781859 0.621465
-0.289257 0.457301 -0.414278 0.0634072 0.781228 0.621017
-0.289257 0.46281 -0.420236 0.0607373 0.801259 0.595227
-0.289257 0.468319 -0.429112 0.00721534 0.849584 0.527404
-0.289257 0.473831 -0.437985 0.132275 0.869971 0.47503
-0.289257 0.47934 -0.449291 0.141555 0.91153 0.386103
-0.289257 0.484849 -0.464001 0.204729 0.919325 0.336046
-0.289257 0.490358 -0.479438 0.230656 0.94565 0.229223
-0.289257 0.495867 -0.50946 0.444603 0.868889 0.217623
-0.289257 0.501379 -0.523433 0.225387 0.906354 0.357384
-0.283746 -0.424244 -0.150846 -0.619998 -0.70987 0.334197
-0.283746 -0.418732 -0.139143 -0.431474 -0.794251 0.42778
-0.283746 -0.413223 -0.130386 -0.532116 -0.662176 0.527613
-0.283746 -0.407714 -0.125313 -0.582977 -0.570913 0.578097
-0.283746 -0.402205 -0.119504 -0.612572 -0.589847 0.526152
-0.283746 -0.396696 -0.112961 -0.54377 -0.608842 0.577603
-0.283746 -0.391184 -0.107889 -0.47769 -0.649646 0.591415
-0.283746 -0.385675 -0.100857 -0.526139 -0.628804 0.572523
-0.283746 -0.380166 -0.0957869 -0.518582 -0.600563 0.608602
-0.283746 -0.374657 -0.0899827 -0.578655 -0.579248 0.574134
-0.283746 -0.369145 -0.0846695 -0.53261 -0.587467 0.60927
-0.283746 -0.363636 -0.0793563 -0.608401 -0.530017 0.590704
-0.283746 -0.358127 -0.0747819 -0.531228 -0.573411 0.623696
-0.283746 -0.352618 -0.0692257 -0.529561 -0.558483 0.638484
-0.283746 -0.347109 -0.0651447 -0.51018 -0.54044 0.66906
-0.283746 -0.341597 -0.0603248 -0.515011 -0.57225 0.638196
-0.283746 -0.336088 -0.055262 -0.533735 -0.548431 0.643701
-0.283746 -0.330579 -0.0509381 -0.416831 -0.645198 0.64029
-0.283746 -0.32507 -0.0441595 -0.50711 -0.522668 0.685316
-0.283746 -0.319559 -0.0425331 -0.363697 -0.382895 0.849185
-0.283746 -0.314049 -0.0391909 -0.448489 -0.217168 0.867004
-0.283746 -0.30854 -0.0397736 -0.4888 -0.0629308 0.870123
-0.283746 -0.303031 -0.0383926 -0.222125 -0.0270408 0.974643
-0.283746 -0.297522 -0.0394661 -0.423192 0.299808 0.854999
-0.283746 -0.292011 -0.0422579 -0.25724 0.205094 0.944333
-0.283746 -0.286501 -0.0418612 -0.437692 -0.162115 0.884389
-0.283746 -0.280992 -0.0402372 -0.545925 -0.434212 0.716537
-0.283746 -0.275483 -0.0351818 -0.571842 -0.514857 0.638686
-0.283746 -0.269972 -0.0313562 -0.475822 -0.522833 0.707276
-0.283746 -0.264463 -0.0270372 -0.411511 -0.541707 0.732947
-0.283746 -0.258954 -0.0232116 -0.498725 -0.448916 0.741449
-0.283746 -0.253444 -0.0203653 -0.423449 -0.386585 0.819294
-0.283746 -0.247935 -0.0180124 -0.474154 -0.248167 0.844743
-0.283746 -0.242424 -0.0171273 -0.597938 -0.160741 0.78526
-0.283746 -0.236915 -0.0157562 -0.603246 -0.0916179 0.792276
-0.283746 -0.231406 -0.0158554 -0.406037 -0.144408 0.902375
-0.283746 -0.225896 -0.0139934 -0.541364 -0.315344 0.779412
-0.283746 -0.220385 -0.0113951 -0.608912 -0.158803 0.77718
-0.283746 -0.214876 -0.0117397 -0.483259 -0.156752 0.86133
-0.283746 -0.209367 -0.00938926 -0.570985 -0.198077 0.796707
-0.283746 -0.203857 -0.00900001 -0.533487 -0.20399 0.820841
-0.283746 -0.198348 -0.00665207 -0.641876 -0.215539 0.735893
-0.283746 -0.192838 -0.00577438 -0.666525 -0.164394 0.727131
-0.283746 -0.187328 -0.00416033 -0.716319 -0.0335476 0.696966
-0.283746 -0.181818 -0.00524381 -0.666617 -0.00266932 0.745396
-0.283746 -0.176309 -0.00412066 -0.69217 -0.158978 0.704008
-0.283746 -0.170799 -0.00275455 -0.614039 -0.0898465 0.784145
-0.283746 -0.165289 -0.00285868 -0.616439 0.0148636 0.787262
-0.283746 -0.15978 -0.00296281 -0.708095 -0.0492764 0.704396
-0.283746 -0.15427 -0.00208761 -0.625749 0.066604 0.777176
-0.283746 -0.148761 -0.00390744 -0.640293 0.148395 0.75366
-0.283746 -0.143251 -0.00425703 -0.663063 -0.101171 0.741696
-0.283746 -0.137741 -0.00240496 -0.657098 -0.0022568 0.753801
-0.283746 -0.132232 -0.0042248 -0.580803 0.0697353 0.811052
-0.283746 -0.126722 -0.00335207 -0.666012 -0.0352334 0.745108
-0.283746 -0.121212 -0.00370414 -0.609053 0.153453 0.778143
-0.283746 -0.115703 -0.00552397 -0.64988 0.147093 0.745667
-0.283746 -0.110193 -0.00587604 -0.674068 0.0634583 0.735939
-0.283746 -0.104683 -0.00647604 -0.730019 0.146578 0.667524
-0.283746 -0.0991739 -0.00829587 -0.63241 0.2132 0.744717
-0.283746 -0.093664 -0.00962976 -0.713454 0.0909006 0.694781
-0.283746 -0.0881545 -0.00973885 -0.698703 0.0772925 0.711224
-0.283746 -0.0826449 -0.0108273 -0.603772 0.0687222 0.794189
-0.283746 -0.0771353 -0.0106909 -0.682733 0.0630322 0.727944
-0.283746 -0.0716254 -0.0117818 -0.697987 0.224994 0.679847
-0.283746 -0.0661158 -0.014338 -0.678519 0.12701 0.72352
-0.283746 -0.0606062 -0.0137157 -0.549976 0.162051 0.819308
-0.283746 -0.0550967 -0.0165174 -0.637275 0.242216 0.731582
-0.283746 -0.0495871 -0.0173628 -0.596021 0.172599 0.7842
-0.283746 -0.0440772 -0.0189446 -0.617765 0.169068 0.767973
-0.283746 -0.0385676 -0.0197901 -0.617309 0.247348 0.746826
-0.283746 -0.033058 -0.0225942 -0.590762 0.283729 0.755313
-0.283746 -0.0275485 -0.0239281 -0.598588 0.236545 0.765336
-0.283746 -0.0220386 -0.0259984 -0.658275 0.222316 0.719201
-0.283746 -0.016529 -0.0273347 -0.637142 0.242423 0.731629
-0.283746 -0.0110194 -0.0296504 -0.544312 0.353432 0.760796
-0.283746 -0.00550984 -0.0324546 -0.593421 0.268337 0.758846
-0.283746 -2.47934e-007 -0.033548 -0.598545 0.296246 0.7443
-0.283746 0.00550959 -0.0368405 -0.687383 0.242174 0.684731
-0.283746 0.0110192 -0.037443 -0.726793 0.216131 0.651966
-0.283746 0.0165288 -0.0404926 -0.692134 0.213316 0.689527
-0.283746 0.0220384 -0.0408521 -0.792406 0.0928911 0.60288
-0.283746 0.0275481 -0.0421909 -0.732951 0.174302 0.657573
-0.283746 0.0330577 -0.0437728 -0.76413 0.165303 0.623523
-0.283746 0.0385674 -0.0451116 -0.705965 0.167217 0.688224
-0.283746 0.044077 -0.0464505 -0.668054 0.26195 0.696481
-0.283746 0.0495867 -0.0492571 -0.677784 0.203105 0.706652
-0.283746 0.0550963 -0.049619 -0.613537 0.202469 0.763269
-0.283746 0.060606 -0.0521802 -0.602951 0.362044 0.710897
-0.283746 0.0661156 -0.0552298 -0.585949 0.158019 0.794792
-0.283746 0.0716252 -0.0543719 -0.56497 0.125981 0.815437
-0.283746 0.077135 -0.0569331 -0.581401 0.329439 0.743937
-0.283746 0.0826446 -0.0592513 -0.568497 0.211084 0.795144
-0.283746 0.0881542 -0.0598587 -0.466365 0.172635 0.867583
-0.283746 0.0936638 -0.061443 -0.477744 0.207743 0.853583
-0.283746 0.0991734 -0.0625389 -0.397949 0.235488 0.886669
-0.283746 0.104683 -0.0643686 -0.40813 0.0802897 0.909386
-0.283746 0.110193 -0.0635133 -0.355861 0.0822339 0.930914
-0.283746 0.115702 -0.065343 -0.277368 0.389181 0.87841
-0.283746 0.121212 -0.0683951 -0.305365 0.300249 0.903661
-0.283746 0.126722 -0.069005 -0.319002 0.0835424 0.944065
-0.283746 0.132231 -0.0693695 -0.428931 0.350485 0.832573
-0.283746 0.137741 -0.0736439 -0.386855 0.418721 0.821593
-0.283746 0.143251 -0.0749852 -0.322363 0.42983 0.843403
-0.283746 0.14876 -0.0792596 -0.329875 0.382503 0.863061
-0.283746 0.15427 -0.0798695 -0.410903 0.369395 0.833491
-0.283746 0.15978 -0.0841414 -0.257982 0.592093 0.76346
-0.283746 0.165289 -0.0884158 -0.334186 0.577592 0.744787
-0.283746 0.170799 -0.0926877 -0.397083 0.581858 0.709765
-0.283746 0.176309 -0.097448 -0.362566 0.642829 0.674772
-0.283746 0.181818 -0.103185 -0.295108 0.659027 0.691805
-0.283746 0.187328 -0.107946 -0.252333 0.667405 0.700641
-0.283746 0.192837 -0.113683 -0.157216 0.704839 0.691726
-0.283746 0.198347 -0.119174 -0.234902 0.625954 0.743641
-0.283746 0.203857 -0.122958 -0.233202 0.456518 0.858608
-0.283746 0.209366 -0.125033 -0.285354 0.320279 0.903324
-0.283746 0.214876 -0.126865 -0.134828 0.193951 0.971702
-0.283746 0.220386 -0.127232 -0.315037 0.368274 0.874715
-0.283746 0.225895 -0.131504 0.416826 -0.0397951 0.908115
-0.283746 0.231405 -0.126749 0.671463 -0.144456 0.726822
-0.283746 0.236915 -0.129315 -0.0995608 0.510826 0.8539
-0.283746 0.242424 -0.133341 -0.155558 0.71235 0.684368
-0.283746 0.247934 -0.140784 -0.405919 0.684231 0.605853
-0.283746 0.253444 -0.145788 -0.354348 0.727887 0.587041
-0.283746 0.258953 -0.154448 -0.346787 0.770227 0.535247
-0.283746 0.264463 -0.161643 -0.384279 0.750275 0.537975
-0.283746 0.269972 -0.169815 -0.586193 0.774408 0.238054
-0.283746 0.275482 -0.197489 -0.572111 0.782545 0.245584
-0.283746 0.280992 -0.204927 -0.426214 0.787628 0.444955
-0.283746 0.286501 -0.216997 -0.42142 0.773928 0.472696
-0.283746 0.292011 -0.22297 -0.391138 0.751742 0.530938
-0.283746 0.29752 -0.232597 -0.354243 0.771532 0.528442
-0.283746 0.303031 -0.239058 -0.454283 0.688204 0.565688
-0.283746 0.30854 -0.246003 -0.351417 0.733491 0.581805
-0.283746 0.314049 -0.25295 -0.444307 0.692035 0.568928
-0.283746 0.319559 -0.259406 -0.369519 0.717771 0.590135
-0.283746 0.32507 -0.266353 -0.416332 0.712265 0.565107
-0.283746 0.330579 -0.273295 -0.384099 0.772191 0.506151
-0.283746 0.336088 -0.283163 -0.39619 0.774378 0.493327
-0.283746 0.341597 -0.290594 -0.320987 0.893727 0.3134
-0.283746 0.347106 -0.314586 -0.5821 0.782077 0.22252
-0.283746 0.352618 -0.329321 -0.246861 0.871387 0.423963
-0.283746 0.358127 -0.337235 -0.171338 0.795754 0.580878
-0.283746 0.363636 -0.344418 0.0273734 0.661891 0.7491
-0.283746 0.369145 -0.346971 -0.0250877 0.539127 0.841851
-0.283746 0.374657 -0.351474 0.120388 0.560787 0.819161
-0.283746 0.380166 -0.354516 0.230964 0.376302 0.897247
-0.283746 0.385675 -0.356095 -0.0647042 0.48222 0.873657
-0.283746 0.391184 -0.360598 0.239109 0.560339 0.792999
-0.283746 0.396693 -0.363883 0.277203 0.434986 0.856706
-0.283746 0.402205 -0.366194 0.217755 0.48587 0.846471
-0.283746 0.407714 -0.370208 0.222399 0.562576 0.79627
